-0.830872 -0.513733 -0.320772
-0.888626 -0.431546 -0.232916
-0.882598 -0.393925 -0.384902
0.809313 0.352588 0.704672
0.840494 0.408135 0.534546
0.771407 0.455377 0.66672
-0.42678 0.821232 0.568097
-0.343175 0.812841 0.70599
-0.301955 0.8754 0.566232
-0.821719 -0.470771 -0.481762
0.791454 0.579954 -0.289521
0.860269 0.497669 -0.166101
0.851342 0.47974 -0.318436
-0.737418 0.122792 0.996272
-0.67472 0.224906 1.05446
-0.755885 0.220024 0.924939
0.380094 -0.181446 -1.36046
0.450023 -0.252474 -1.28488
0.332554 -0.274861 -1.35321
0.403093 -0.129449 1.35894
0.368834 -0.250626 1.3426
0.474546 -0.217925 1.27924
-0.088399 -0.412246 1.36016
-0.198424 -0.451856 1.30462
-0.102187 -0.521122 1.27101
0.134601 -0.5345 1.25157
0.233275 -0.46098 1.2843
0.118949 -0.430524 1.34206
-0.720872 -0.68479 -0.160197
-0.797718 -0.598641 -0.108941
-0.777321 -0.602901 -0.26951
-0.859295 -0.494965 0.193388
-0.804304 -0.558452 0.304568
-0.828088 -0.481836 0.429809
0.511824 0.559608 0.977737
0.552052 0.632109 0.815644
0.45709 0.657304 0.898775
0.693023 0.496666 0.783802
0.604744 0.533358 0.887176
0.649327 0.430936 0.939949
0.729859 -0.213039 0.974331
0.645857 -0.247216 1.08349
0.698686 -0.332069 0.950542
-0.961508 -0.203003 -0.277771
-0.941739 -0.156263 -0.446763
-0.920182 -0.276984 -0.415004
0.952151 0.287035 -0.157458
0.958208 0.203665 -0.301338
0.923883 0.299358 -0.357571
0.539167 0.480553 -1.03746
0.490057 0.410837 -1.1532
0.441204 0.518857 -1.09831
0.528637 0.229519 -1.22584
0.578743 0.152764 -1.20161
0.49979 0.101694 -1.29023
0.610602 -0.357401 1.06006
0.647419 -0.438847 0.934661
-0.946059 -0.0347021 -0.483197
-0.907376 -0.105531 -0.610283
-0.727338 0.0275317 -1.02859
-0.801297 -0.00702644 -0.897339
-0.78785 0.11413 -0.907799
0.051189 0.244121 1.45259
-0.066184 0.314223 1.42056
-0.065938 0.199207 1.4666
0.231586 0.551712 1.20186
0.296266 0.616592 1.09412
0.168277 0.630341 1.13679
-0.727533 -0.205772 -0.981732
-0.733063 -0.087294 -1.0118
-0.655384 -0.158637 -1.10767
0.0214031 -0.888806 -0.686676
0.0551154 -0.936666 -0.51879
-0.0561456 -0.928706 -0.549812
0.168253 0.221673 1.44074
0.133242 0.12149 1.47541
-0.75513 -0.523779 -0.591377
-0.752399 -0.588231 -0.444669
-0.488097 0.861258 0.212109
-0.436085 0.898485 0.0758083
-0.556743 0.828934 0.0808671
0.320952 -0.357317 1.31566
0.347924 -0.453262 1.23101
-0.835122 -0.298708 -0.692838
-0.854805 -0.177469 -0.731491
-0.788344 -0.250937 -0.8426
-0.0252333 0.709712 1.05606
-0.106282 0.778734 0.92743
-0.141169 0.697493 1.05382
-0.801256 -0.129432 -0.876232
0.659761 0.670313 -0.509552
0.70695 0.668093 -0.348158
0.74718 0.588164 -0.46424
0.643394 0.229795 -1.09535
0.652763 0.117955 -1.12248
0.96208 0.164814 0.326019
0.913627 0.22815 0.504753
0.937879 0.12859 0.483379
-0.995626 0.0831818 -0.0638203
-0.984288 0.0904588 -0.227458
-0.994147 -0.0173433 -0.159954
-0.832503 -0.553306 0.0421933
-0.780957 -0.615322 0.160754
-0.187493 -0.912683 0.544682
-0.21054 -0.859598 0.698369
-0.295422 -0.87561 0.573215
0.66764 0.134922 1.09823
0.745929 0.103599 0.986878
0.734484 0.211158 0.967407
-0.259568 0.639873 1.08497
-0.363861 0.573841 1.10055
-0.2543 0.545436 1.19797
-0.159156 -0.951956 0.392442
-0.0667125 -0.971971 0.338155
-0.0690986 -0.937564 0.51132
-0.724455 -0.660798 0.294366
-0.636231 -0.748493 0.280497
-0.66315 -0.690015 0.435029
-0.749594 -0.661858 0.0108922
-0.184292 -0.902087 -0.585336
-0.138936 -0.946015 -0.439254
-0.274384 -0.904483 -0.4898
-0.693148 0.63558 -0.509966
-0.687519 0.568417 -0.677861
-0.764884 0.544157 -0.51711
0.0968981 -0.860736 0.749617
0.0327871 -0.914366 0.605338
0.172092 -0.890527 0.631688
0.693777 0.322689 0.965778
0.736397 0.391499 0.827653
0.811104 0.497323 -0.461797
0.761103 0.502603 -0.615023
0.273138 0.940142 -0.305676
0.323252 0.899604 -0.440451
0.213108 0.92195 -0.485115
-0.0372551 0.999293 -0.00745278
-0.0389248 0.991694 0.183878
0.0663173 0.996461 0.0774784
-0.642276 -0.280095 -1.07019
-0.564994 -0.226487 -1.1901
-0.550367 -0.340847 -1.14327
0.220377 -0.264427 -1.40833
0.108523 -0.270306 -1.43496
0.161709 -0.15057 -1.46293
0.465896 -0.126827 -1.31355
0.556498 -0.145769 -1.22694
0.385364 0.307993 1.30477
0.471681 0.233644 1.27538
0.487428 0.364333 1.19028
0.240364 0.920906 0.460274
0.199418 0.957416 0.313161
0.106341 0.955556 0.412442
0.212985 -0.367204 1.35814
0.696932 0.674189 0.366671
0.60529 0.734219 0.461228
0.668193 0.648797 0.546173
0.42117 -0.873385 0.366857
0.410948 -0.838737 0.535905
0.323887 -0.895367 0.45846
0.128909 -0.963011 0.354938
0.14532 -0.980963 0.193223
0.234725 -0.948009 0.322353
-0.693175 -0.714758 0.139336
-0.539994 -0.82272 -0.266389
-0.604394 -0.755418 -0.379629
-0.500022 -0.814001 -0.443402
0.642332 -0.691352 -0.496231
0.599003 -0.662617 -0.67439
0.681837 -0.614586 -0.595071
-0.253976 -0.718142 0.971844
-0.351708 -0.65927 0.996868
-0.344975 -0.741385 0.863433
-0.950503 -0.309682 0.0379587
-0.894256 -0.446919 0.0358237
-0.920842 -0.37281 0.171434
-0.926922 -0.304259 0.329464
-0.911114 -0.247551 0.494296
-0.955328 -0.18448 0.346353
0.156931 0.431755 1.33235
0.0420321 0.457543 1.33229
0.0419587 0.358561 1.39884
-0.89471 -0.228811 -0.57538
-0.883004 -0.419172 0.316776
0.53281 0.0258659 1.26876
0.459778 0.112998 1.32122
0.431539 -0.00904906 1.35307
0.597704 0.355379 1.07797
0.799083 -0.530431 -0.424552
0.728316 -0.615663 -0.451287
0.754911 -0.528419 -0.582655
0.40739 -0.789597 0.688318
0.298993 -0.857862 0.626914
0.647978 -0.604486 0.695072
0.586286 -0.691008 0.634231
0.676719 -0.644938 0.532672
0.320421 -0.0413078 1.41956
0.294268 -0.164542 1.41218
-0.86427 -0.350859 -0.540698
-0.636522 -0.577955 -0.76604
-0.547375 -0.620427 -0.842476
-0.581913 -0.676205 -0.677702
-0.714204 -0.492416 -0.746148
-0.61346 -0.508676 -0.906124
-0.573432 -0.817356 -0.0835947
-0.663537 -0.747886 -0.0293965
-0.636644 -0.758283 -0.210494
-0.858354 -0.506166 -0.125714
-0.922884 -0.380141 -0.092203
0.194496 0.839032 -0.762195
0.297823 0.800403 -0.780369
0.239256 0.759109 -0.9081
-0.426731 0.204762 -1.32134
-0.363844 0.113301 -1.38681
-0.484143 0.101348 -1.30365
0.996094 0.0882878 -0.00245256
0.999213 -0.0394095 -0.00684813
0.994622 0.0299873 -0.148705
0.987242 -0.158594 -0.0212601
0.990701 -0.0828561 -0.161874
0.981299 0.0633345 0.272656
0.995813 0.0112097 0.136088
0.984995 0.14158 0.148043
0.896794 0.343059 0.419116
0.937318 0.267139 0.335649
0.596094 -0.320046 -1.10456
0.546144 -0.24541 -1.20141
0.642359 -0.195918 -1.11141
0.825798 0.406576 -0.586255
0.826116 0.314718 -0.701137
0.765553 0.411957 -0.741279
0.0568967 0.890072 0.678383
0.181216 0.868294 0.692647
0.145287 0.916688 0.558386
0.817513 0.529704 0.339035
0.857965 0.498225 0.18776
0.776736 0.605425 0.260421
0.578883 0.805498 0.190144
0.661843 0.746836 0.0972003
0.58111 0.813648 0.0254383
-0.175748 0.900393 0.597002
-0.131863 0.849165 0.767101
-0.0611224 0.900897 0.644563
0.43837 -0.00218556 -1.34819
0.40111 0.105657 -1.36487
-0.141794 0.970049 0.29584
-0.0184591 0.971064 0.357156
-0.981543 0.189531 0.0382822
-0.980584 0.132017 0.217506
-0.957187 0.251735 0.214365
-0.463686 0.804328 -0.55733
-0.553445 0.746058 -0.555397
-0.529861 0.803701 -0.406141
0.954025 0.103312 -0.422039
0.924776 0.206742 -0.479172
0.0978409 -0.454934 -1.3277
0.218187 -0.460684 -1.29049
0.154943 -0.543571 -1.23741
-0.133957 0.989463 0.0824056
-0.245793 0.969262 -0.0162435
-0.221364 0.969079 0.163521
-0.329927 0.752104 0.855774
-0.220022 0.794883 0.848198
0.7994 0.500565 0.498386
0.946775 0.321262 0.0303199
0.976855 0.213896 0.00274472
0.21888 -0.0905322 1.45731
0.155678 -0.190708 1.45384
0.581655 -0.172647 1.19235
0.509084 -0.0960147 1.28302
-0.599352 -0.797228 0.10821
-0.496868 -0.867765 0.0155027
-0.509542 -0.852897 0.170588
0.4112 -0.907667 -0.125998
0.519382 -0.852685 -0.0844692
0.440978 -0.897286 0.0305929
-0.189498 -0.980582 0.0757298
-0.301009 -0.950321 0.118903
-0.278714 -0.959875 -0.0464339
0.587609 -0.786451 0.285437
0.663005 -0.705453 0.375782
0.591938 -0.740705 0.476624
0.736152 0.228812 -0.955449
0.813302 0.222576 -0.806381
0.793022 0.127442 -0.893569
-0.210375 -0.963756 0.246091
-0.0909648 -0.987769 0.189966
0.900358 -0.32951 -0.426325
0.938755 -0.304027 -0.243293
0.897173 -0.403051 -0.270956
-0.370492 -0.454348 -1.21519
-0.347555 -0.341588 -1.30984
-0.270843 -0.442227 -1.28255
-0.197257 -0.781485 -0.887882
-0.299183 -0.787771 -0.807645
-0.287763 -0.712313 -0.960238
-0.547529 -0.811835 0.304231
-0.575299 -0.759966 0.453689
-0.67994 -0.626622 0.571233
-0.766697 -0.519862 0.565081
-0.7484 -0.59483 0.440077
-0.0236731 0.842794 0.806573
-0.479238 -0.119449 1.30428
-0.519458 -0.0165851 1.2815
-0.588311 -0.112071 1.20125
0.0528765 0.625323 1.16786
-0.0611058 0.625571 1.16666
0.281043 0.870721 0.605336
-0.983479 -0.179591 0.0340992
-0.964419 -0.253682 -0.111658
-0.7008 0.646042 0.453758
-0.676057 0.612233 0.615033
-0.611813 0.700786 0.550287
-0.635401 0.0921375 -1.15
-0.709314 0.131332 -1.03883
-0.643108 0.211416 -1.10402
-0.577262 0.813783 -0.100917
-0.600156 0.778088 -0.278176
-0.667312 0.737668 -0.154002
0.865391 -0.14304 0.72037
0.844101 -0.245095 0.715331
0.910046 -0.166206 0.569589
-0.213318 0.455797 1.29622
-0.124491 0.526046 1.26194
0.316596 -0.711572 0.940863
0.32023 -0.790758 0.782526
0.407061 -0.718526 0.8459
0.623682 0.0501079 1.17011
0.705072 -0.00050594 1.0637
0.411549 0.585308 1.0479
0.35242 0.677293 0.96872
0.0673847 -0.628515 1.16231
0.17974 -0.623732 1.14104
0.108175 -0.703592 1.05348
0.574741 -0.545354 0.9152
0.66483 -0.516663 0.809251
0.207309 -0.709373 1.01048
0.235745 -0.772628 0.8842
-0.687827 -0.428358 -0.879011
-0.709247 -0.321747 -0.940881
-0.618348 -0.401236 -1.01364
-0.681797 -0.603938 -0.619214
-0.659466 -0.673834 -0.499867
-0.798103 -0.419892 -0.648171
-0.764761 -0.368725 -0.792565
-0.524852 -0.453674 -1.08032
-0.523034 -0.545077 -0.982846
-0.430582 -0.531007 -1.09472
0.390915 -0.360664 -1.27023
0.276893 -0.368747 -1.331
0.423879 0.209074 -1.32189
0.971196 -0.204472 -0.183527
0.94184 -0.227581 -0.370908
0.971421 -0.129871 -0.298025
0.81459 0.152907 0.839279
0.793515 0.0274394 0.911899
0.859827 0.0550256 0.761418
0.989323 -0.112499 0.13897
0.861385 0.50795 0.00273413
0.913477 0.402856 -0.0857457
0.698291 0.501978 -0.765453
0.876383 0.212683 -0.648166
0.537772 0.809135 0.355288
0.638801 0.745652 0.284355
0.905672 0.420047 0.0864121
0.501732 0.809556 -0.457155
0.609716 0.746746 -0.398609
0.563854 0.738486 -0.55461
0.399971 0.848307 -0.520477
0.272155 0.870169 -0.616165
0.873826 0.394306 -0.426775
0.881937 0.305748 -0.538133
0.755537 0.322694 -0.855173
0.6881 0.418918 -0.888712
0.34425 0.716243 -0.910548
0.69186 0.590725 -0.622769
0.632172 0.584261 -0.763377
0.598285 0.666916 -0.666239
0.644816 0.747145 -0.24181
0.664483 0.745607 -0.075494
0.733921 0.66849 -0.180503
0.470629 0.777568 -0.625513
0.369569 0.916905 -0.226013
0.281377 0.955748 -0.128795
0.2825 0.750779 0.895645
0.390543 0.743731 0.813797
0.492573 0.862634 0.17256
0.432116 0.876852 0.316092
0.584143 0.687303 0.647597
0.642811 0.595742 0.722318
0.457817 0.831248 0.472989
0.406443 0.808602 0.638103
0.518255 0.767591 0.565672
-0.166627 0.609609 1.16249
-0.955664 0.287264 -0.0970426
-0.951104 0.305436 0.0689003
-0.914128 0.405156 0.0221677
0.0341231 -0.0839976 -1.49382
-0.0955689 -0.0625124 -1.49019
-0.00422604 0.0149269 -1.49982
-0.868465 0.475564 -0.210044
-0.866753 0.497584 -0.0508519
-0.810368 0.575027 -0.16869
0.291322 0.664779 -1.03184
0.071062 0.995288 -0.0989616
0.175387 0.976615 -0.186518
0.0683037 0.980187 -0.278885
0.17561 0.165212 -1.45575
0.218683 0.0626994 -1.46067
0.0932328 0.0796104 -1.48868
-0.543864 0.502999 1.00757
-0.607397 0.407131 1.02321
-0.518434 0.402851 1.13142
-0.759328 0.604775 -0.360211
-0.684475 0.694735 -0.331486
0.456803 0.478789 1.12459
0.0944214 0.832802 0.818188
0.0183391 0.936924 0.523579
-0.102446 0.943557 0.47245
0.779344 0.277321 0.842829
0.846867 0.238701 0.712836
0.868571 0.437584 0.348907
0.0299684 -0.98589 0.247035
0.0115999 -0.466978 1.32629
0.016682 -0.552679 1.24984
-0.69082 -0.413942 0.88921
-0.741091 -0.460436 0.73298
-0.653338 -0.525652 0.817245
-0.403637 -0.825291 0.592398
-0.503016 -0.764107 0.605814
-0.478116 -0.824508 0.453963
-0.324874 -0.815355 0.718833
-0.0757693 -0.696633 -1.07012
-0.0311795 -0.613276 -1.18388
0.0263157 -0.684309 -1.09308
-0.017446 -0.873205 0.730562
0.572355 0.322896 -1.13063
0.608246 0.407743 -1.02152
0.859129 -0.23555 -0.681493
0.811155 -0.181011 -0.834171
0.877253 -0.137341 -0.689943
0.879542 -0.466798 -0.138333
0.83681 -0.518826 -0.262257
0.820243 -0.435274 -0.556695
0.797305 -0.383338 -0.699324
0.862111 -0.325592 -0.582407
0.776534 -0.629948 0.0190584
0.765134 -0.631588 0.187751
0.70084 -0.712828 0.0396433
0.793173 -0.601153 -0.146133
0.764954 -0.613732 -0.293087
0.505139 -0.599565 -0.931157
0.42596 -0.707593 -0.845698
0.408237 -0.632554 -0.987289
0.409644 -0.780445 -0.708498
0.5032 -0.732142 -0.688625
0.0176302 -0.987548 -0.234491
-0.113096 -0.978794 -0.256197
-0.0279093 -0.965713 -0.387159
0.0141338 -0.828858 -0.83892
0.12126 -0.782009 -0.917036
0.123724 -0.846875 -0.775798
-0.418414 0.474929 -1.16129
-0.527011 0.494887 -1.03635
-0.429631 0.560138 -1.06242
-0.389624 -0.920881 -0.0196754
-0.594459 -0.696869 0.601856
-0.285165 0.272204 1.37852
-0.182738 0.357837 1.37359
-0.305782 0.378274 1.3106
0.121455 0.536386 1.25278
-0.824402 0.516795 -0.346252
-0.929645 0.111567 0.526739
-0.952132 0.179711 0.370926
-0.967048 0.057427 0.372047
-0.55439 0.0926676 1.24062
-0.446433 0.0734922 1.33769
-0.480166 0.187267 1.28543
-0.237144 0.724831 0.970237
-0.961772 -0.244599 0.184731
-0.984676 -0.119176 0.190985
-0.998624 -0.0497487 0.0248967
-0.987532 -0.131668 -0.129422
-0.932245 -0.321007 -0.250434
-0.888425 0.046573 0.68498
-0.935549 -0.00894923 0.529624
-0.890098 -0.0761621 0.674039
-0.906334 0.0242896 -0.632794
-0.852415 0.0784029 -0.775431
-0.861295 -0.0511324 -0.758289
0.276743 0.258358 1.38834
0.15866 0.32592 1.39798
0.26166 0.463155 1.27016
-0.653494 0.756827 0.0188815
-0.273575 -0.253814 1.39164
-0.368882 -0.292806 1.32323
-0.28878 -0.374164 1.32188
-0.214162 0.0366909 1.46416
-0.14649 -0.0598968 1.4811
-0.0782297 0.0521931 1.49335
0.272594 0.363909 1.33598
0.377296 0.415279 1.24164
0.248213 -0.264888 1.39768
0.43218 -0.343854 1.25049
0.345681 0.0708563 1.40351
0.370218 0.18837 1.36447
0.564743 0.150921 1.21702
0.0254421 -0.958498 0.425943
0.116177 -0.933172 0.510204
0.288329 -0.634817 1.07527
-0.247622 -0.639778 1.09136
-0.137589 -0.694558 1.05924
-0.15318 -0.607255 1.1694
0.802066 -0.176063 0.856042
0.832883 -0.0588793 0.825462
-0.697298 -0.680917 -0.335839
0.0401024 -0.997725 0.0812824
-0.0751086 -0.996852 0.0380654
-0.440564 -0.874289 0.305656
-0.409551 -0.907225 0.143963
-0.331185 -0.925111 0.278555
-0.481623 -0.709764 -0.771114
-0.453798 -0.632209 -0.941995
-0.386477 -0.716156 -0.871751
-0.221192 -0.348426 -1.3663
-0.452873 -0.397841 -1.19684
-0.460917 -0.288723 -1.25874
-0.971293 0.0323323 -0.353517
-0.938262 0.0969941 -0.498072
-0.430907 0.863917 -0.391054
-0.369765 0.855071 -0.545242
0.869395 0.306083 0.581849
0.900779 -0.336821 0.4112
0.88206 -0.280854 0.567412
0.849298 -0.390248 0.533292
0.91727 -0.0866888 -0.583076
0.942755 0.0053155 -0.500166
0.948857 -0.112092 -0.442705
0.803984 0.590936 -0.0995524
0.918471 0.365317 0.227265
0.803843 0.591604 0.0929542
0.507502 0.705657 -0.741688
0.406454 0.751087 -0.780381
0.907199 0.386436 -0.249457
0.465551 0.308751 -1.24413
0.39335 0.377294 -1.25761
0.721739 0.129325 -1.01996
0.306653 0.159593 -1.40752
0.504587 0.573365 -0.96822
0.610796 0.513812 -0.90365
-0.507544 0.724748 -0.698972
-0.39969 0.787392 -0.703981
-0.395832 0.90699 -0.215738
-0.26539 0.954946 -0.199259
-0.331299 0.913512 -0.354129
0.291643 0.95623 0.0357792
0.281583 0.951108 0.190361
0.391317 0.915392 0.141734
0.571384 0.815538 -0.137634
0.472159 0.873556 -0.177266
0.487155 0.873315 -0.00030013
0.539922 0.817508 -0.300617
0.310057 0.812753 0.739877
0.209779 0.81168 0.817696
-0.459523 0.84935 0.389544
-0.353038 0.891303 0.426757
0.0790519 0.851377 -0.777846
0.0351061 0.902655 -0.643395
0.148038 0.89735 -0.623624
-0.278054 0.940022 0.296397
-0.328082 0.941576 0.114208
-0.38828 0.905584 0.256128
-0.0368634 0.991906 -0.182253
-0.140622 0.973114 -0.273623
-0.14866 0.986496 -0.103116
0.368859 0.472081 -1.20101
0.252994 0.511947 -1.23138
0.330266 0.569034 -1.12962
0.339833 0.289879 -1.34205
0.42825 0.872845 -0.35096
-0.126158 0.943308 -0.460512
-0.222407 0.942417 -0.374654
-0.043159 0.854397 -0.776737
0.179828 0.983634 -0.0168344
0.175094 0.979662 0.146995
-0.41958 0.391193 1.22865
-0.39645 0.28568 1.30871
-0.157062 0.133305 1.46783
0.553871 0.456297 1.04465
0.486835 0.724567 0.73177
0.724107 0.554399 0.615386
0.150015 0.765234 0.939043
0.225858 0.696182 1.02211
0.886878 0.15061 0.655149
0.965485 -0.191177 0.265333
0.933025 -0.31784 0.252974
0.968435 -0.237206 0.114897
0.960238 0.254143 0.173341
-0.0712089 -0.297331 1.42817
0.0245492 -0.36269 1.39738
-0.241574 -0.797188 0.82994
-0.164697 -0.767306 0.929657
-0.315829 -0.474881 1.23214
-0.421419 -0.496064 1.13874
-0.33816 -0.572051 1.1209
-0.522152 -0.689157 0.753621
-0.427118 -0.756738 0.742337
-0.445206 -0.674389 0.883589
-0.37168 -0.880597 0.440917
0.393346 -0.635977 0.995905
0.891838 0.00646286 -0.678462
0.846194 -0.0706729 -0.792251
0.82772 0.0261205 -0.8408
0.394328 -0.912355 0.165098
0.490486 -0.856647 0.239899
0.860198 0.116394 -0.744749
0.913941 0.106972 -0.587243
0.224569 -0.788337 -0.859191
0.224589 -0.716066 -0.991373
0.753377 -0.27232 -0.897829
0.804947 -0.296695 -0.770761
0.97573 -0.0148063 -0.327712
0.726941 -0.379104 -0.858855
0.543372 -0.427442 -1.08379
0.640293 -0.400815 -0.982899
0.577496 -0.504635 -0.962624
0.665791 -0.480177 -0.856647
0.267917 -0.551903 -1.18455
0.675416 -0.557954 -0.723276
0.598521 -0.580762 -0.827706
0.234782 -0.847741 -0.713428
0.341861 -0.84911 -0.604007
0.240627 -0.892917 -0.570784
0.22356 -0.918616 0.488745
0.308081 -0.945246 -0.161523
0.355692 -0.913548 -0.295894
0.506676 -0.818568 -0.405906
0.460856 -0.869527 -0.26637
0.401763 -0.867551 -0.439738
0.276394 -0.166679 -1.41972
0.360051 -0.0766086 -1.39467
0.246588 -0.0563201 -1.45122
0.090435 -0.618161 -1.17125
0.123822 -0.705867 -1.04616
-0.568993 -0.739351 -0.540014
-0.479133 -0.776153 -0.614849
-0.621308 -0.00354592 1.17534
-0.603009 -0.406788 1.02934
-0.670252 -0.309434 1.01182
-0.4396 -0.215566 1.30791
-0.544246 -0.214439 1.21658
-0.967314 -0.0656658 0.367398
-0.767716 -0.0833957 0.95301
-0.782727 0.0304115 0.932432
-0.840066 -0.0185612 0.81325
-0.340192 0.475939 1.21653
-0.446889 0.496286 1.11646
-0.468731 0.594349 0.980224
-0.350618 0.664103 0.990494
-0.00876149 0.54011 1.26232
-0.930132 -0.130316 0.514988
-0.996155 0.0658363 0.0866987
-0.957823 0.168713 -0.348927
-0.975617 0.19151 -0.160829
-0.938535 0.283662 -0.295042
-0.891136 0.396959 -0.32966
-0.918515 0.381949 -0.153304
-0.807569 0.589591 0.0219777
0.0307132 -0.24659 1.45295
-0.224212 -0.14545 1.44544
-0.350957 -0.15667 1.38479
0.063361 0.0299843 1.49631
0.212467 0.0289292 1.46511
-0.824131 0.115003 0.831901
-0.708171 0.00901313 1.05898
-0.65185 0.11088 1.1253
0.257031 0.14091 1.43411
0.556916 0.267292 1.17958
0.64596 0.241879 1.08606
0.348336 0.520238 1.16963
0.369319 -0.551605 1.12183
0.610376 -0.059007 1.18487
-0.0235025 -0.0513453 1.49761
0.11739 -0.0611329 1.4868
-0.103243 -0.894193 0.653421
-0.115975 -0.833547 0.810206
0.13144 -0.792138 0.894032
0.0103414 -0.821776 0.854576
-0.0346121 -0.997108 -0.101482
-0.158869 -0.985248 -0.0954166
0.445668 -0.463857 1.14847
0.212758 -0.8366 0.757217
0.260418 -0.547489 1.19289
0.475167 -0.552151 1.02763
0.486221 -0.636204 0.898542
0.51613 -0.384169 1.14828
0.931427 -0.23664 0.414732
0.979231 -0.0562635 0.292177
0.953715 -0.128955 0.407486
0.759918 -0.0875458 0.966146
0.295169 -0.909833 -0.437526
0.534873 -0.842717 0.0917154
0.619971 -0.780637 0.118501
0.49597 -0.713088 0.743247
0.571009 -0.62718 0.794567
-0.361433 -0.628824 -1.03266
-0.376637 -0.221504 -1.34923
-0.482524 -0.170508 -1.28869
-0.653322 -0.0315988 -1.13463
-0.154762 -0.445832 -1.32245
0.529106 -0.0321217 -1.27192
0.591497 0.0399299 -1.20798
0.961475 -0.272734 -0.051564
0.840502 -0.541168 -0.0395356
0.916788 0.0481222 0.594697
0.893313 -0.0470596 0.670448
0.937708 -0.0549022 0.51459
0.73532 -0.416945 0.801428
0.817254 -0.486534 0.463255
0.782553 -0.457003 0.634199
0.982126 0.162947 -0.141329
0.741318 0.671152 0.0021833
0.723559 0.67956 0.181622
0.748134 0.593681 0.444561
0.549845 0.620931 -0.83801
0.367279 0.819083 -0.661037
0.674148 0.32083 -0.997915
-0.0296043 0.970886 -0.356556
0.389901 0.920337 -0.0464071
0.325952 0.919947 0.326756
0.0946007 0.705692 1.05326
0.959855 0.0292947 0.418444
-0.240663 0.848025 0.708241
-0.762826 0.320083 0.842732
-0.688073 0.338418 0.962842
-0.728482 0.424925 0.806037
-0.502518 0.849358 -0.242172
-0.560477 0.804632 0.294068
0.183501 0.702839 -1.03091
0.110086 0.64157 -1.13869
0.070848 0.727719 -1.02331
-0.277537 0.900114 -0.503715
0.132612 0.787188 -0.90343
0.133418 0.550805 -1.23585
0.220092 0.60941 -1.14254
-0.614189 0.666025 -0.634948
-0.534413 0.782362 0.479793
-0.631747 0.733001 0.378298
-0.740535 0.671212 -0.049352
0.358218 0.876335 0.483075
-0.0777513 0.429592 1.3495
0.0777049 0.982803 0.251269
-0.0163825 -0.697486 1.07462
-0.0529088 -0.621053 1.17297
-0.442908 -0.589367 1.01345
-0.8163 -0.418399 0.597362
-0.876679 -0.363721 0.472301
-0.697617 -0.555756 0.67827
-0.610223 -0.620342 0.739127
-0.853432 -0.305161 0.633794
-0.183572 -0.342572 1.38207
-0.265273 -0.92428 0.411713
0.731125 -0.184484 -0.985241
0.718591 -0.689686 -0.133834
0.857638 -0.436866 -0.406953
0.817485 -0.539001 0.304451
0.888997 -0.438776 0.196493
0.872789 -0.429817 0.346939
0.494869 -0.348971 -1.19372
0.331318 -0.460817 -1.235
0.0323172 -0.536379 -1.26504
0.523047 -0.661662 -0.805857
0.910034 -0.21281 -0.53361
0.375122 -0.550364 -1.11887
0.437787 -0.450323 -1.16726
0.454219 -0.808199 -0.562248
0.554494 -0.749417 -0.542724
0.17915 -0.983382 0.0441308
0.0928687 -0.966015 -0.361842
0.174639 -0.93667 -0.455344
-0.469127 -0.877272 -0.152332
-0.392355 -0.853172 -0.515606
-0.4353 -0.873143 -0.329098
0.323154 -0.789935 -0.781692
0.689928 -0.690396 -0.32641
0.599866 -0.760136 -0.37456
0.64363 -0.752557 -0.208923
-0.356946 0.304856 -1.32447
-0.32773 0.423814 -1.26657
-0.244138 0.348313 -1.35754
-0.214797 -0.0301328 -1.46429
-0.294926 -0.127397 -1.42048
-0.319527 -0.00363191 -1.42136
-0.21088 -0.53756 -1.22465
-0.252905 -0.63146 -1.09951
-0.318615 -0.546393 -1.16184
-0.0290494 -0.449682 -1.33907
-0.0929989 -0.534159 -1.26038
-0.145008 -0.621856 -1.15438
-0.505085 -0.410705 1.13863
-0.477696 -0.313355 1.23111
-0.578366 -0.31246 1.13035
-0.880024 0.159556 0.670989
-0.921696 0.300606 0.367767
-0.877504 -0.191312 0.659637
-0.821037 0.230172 0.783624
-0.784615 -0.361487 0.755538
-0.685729 0.533308 0.743005
-0.583937 0.569557 0.867697
-0.601236 0.639251 0.719178
-0.975034 -0.0841708 -0.308228
-0.989557 -0.00215669 0.216192
-0.174045 0.247762 1.42959
-0.600348 0.308603 1.1067
-0.403373 -0.0413082 1.37115
-0.33398 0.0584122 1.41115
-0.287265 -0.0532836 1.43455
-0.740971 -0.199238 0.96195
-0.645266 -0.210716 1.10148
-0.684672 -0.105273 1.08181
-0.162465 -0.234575 1.43764
0.0435387 -0.760239 0.972275
-0.0651252 -0.7688 0.954247
0.552114 -0.464947 1.03814
0.678765 -0.126834 1.08498
0.741677 -0.626821 0.358154
0.510759 -0.813402 0.417591
0.618992 -0.784559 -0.0544138
0.269122 -0.957545 0.155028
-0.888481 0.153478 -0.648731
-0.917808 0.220234 -0.495512
-0.858333 0.271326 -0.653226
0.169807 0.453186 -1.31264
0.045871 0.486737 -1.30851
0.68025 -0.293265 -1.00763
0.757994 0.020884 -0.97789
0.781853 -0.0837664 -0.926715
0.704966 -0.0895202 -1.05535
0.503084 -0.77104 0.585584
0.836097 -0.541423 0.132502
0.892229 -0.451106 0.0311539
0.721028 -0.535087 0.660343
0.449223 0.668404 -0.88923
0.681643 0.0166874 -1.09724
-0.49218 0.673548 -0.827169
-0.594507 0.610985 -0.784111
-0.190054 0.899147 -0.59134
-0.0187928 0.939556 -0.512818
-0.641689 0.756166 0.192376
-0.717188 0.670485 0.284968
-0.223275 0.929573 0.439996
-0.779499 0.5741 0.375872
-0.749977 0.54947 0.552395
-0.434675 0.753572 0.73971
-0.425444 0.687011 0.883617
-0.477322 0.877384 -0.0728939
-0.285372 0.847886 -0.670238
-0.357121 0.933126 -0.0625924
0.39862 0.617966 -1.01649
-0.185463 0.558413 -1.21285
-0.103924 0.631486 -1.15259
-0.0821108 0.519676 -1.27561
-0.74319 0.654434 -0.208841
-0.515818 0.662299 0.815111
0.0228007 0.778911 0.940079
0.128317 -0.306229 1.41491
-0.399485 -0.397201 1.23933
-0.541223 -0.59636 0.889226
-0.230883 -0.543866 1.21018
0.556819 -0.816193 -0.231319
0.935066 -0.34991 0.0850532
0.741103 -0.466592 -0.724142
0.623837 -0.0731318 -1.16719
0.0383959 -0.363427 -1.39625
0.162658 -0.366153 -1.37434
0.305407 -0.638891 -1.05912
0.477405 -0.52862 -1.05283
0.326451 -0.718209 -0.921744
0.322081 -0.946692 0.00934451
0.231264 -0.952316 -0.29854
0.216576 -0.973983 -0.100096
0.13679 -0.980074 -0.216043
0.0861706 -0.995182 -0.0701576
0.134364 -0.899221 -0.624525
-0.0212081 -0.271841 -1.44316
0.090248 0.384415 -1.37811
0.128466 0.276697 -1.4285
0.00980392 0.307841 -1.42708
-0.0931691 -0.35812 -1.39352
-0.14615 -0.257621 -1.43269
0.244158 0.248691 -1.40596
-0.523413 0.584324 -0.930248
-0.417392 0.648311 -0.955155
0.0521888 -0.183845 -1.47235
-0.553087 0.178148 -1.22078
-0.565607 0.0309359 -1.23614
-0.757412 0.302781 -0.867735
-0.820945 0.210835 -0.795987
-0.78474 0.36548 -0.75091
-0.0874354 -0.771595 -0.945115
-0.180541 -0.707938 -1.02421
-0.811997 -0.245997 0.793933
-0.892831 0.325826 -0.466426
-0.837048 0.445914 -0.475551
-0.836502 0.374078 -0.60062
-0.865124 0.494617 0.124738
0.0158512 0.129909 1.4871
-0.581881 0.202818 1.18137
0.0435455 -0.14303 1.48314
0.545633 -0.283058 1.18316
0.774201 -0.295531 0.839563
0.686422 -0.712631 0.217283
-0.164896 0.711169 -1.02511
-0.228705 0.635672 -1.10595
-0.671127 0.310579 -1.00972
-0.738672 0.217797 -0.956864
-0.426024 0.371483 -1.23739
-0.489365 0.281241 -1.23823
0.324977 0.0336138 -1.41769
0.979032 0.0931518 -0.271741
0.813267 -0.353383 0.693444
0.926491 -0.370796 -0.0963411
-0.64813 0.469665 0.899178
-0.729635 0.679455 0.115931
0.0103652 0.579559 -1.2223
0.0145212 0.795673 -0.908328
-0.387247 0.727496 -0.849573
-0.29023 0.708534 -0.964847
-0.311168 0.538094 -1.17502
-0.622468 0.723096 -0.449163
-0.772639 0.469053 -0.64171
-0.70848 0.47745 -0.779563
-0.913877 0.382089 0.205875
-0.861695 0.27276 0.641825
0.199114 -0.633107 -1.12203
-0.301346 -0.85256 -0.640505
-0.391407 -0.790573 -0.706427
-0.21938 -0.947759 -0.34736
0.0196478 -0.758901 -0.976364
-0.204312 -0.846185 -0.738248
-0.0968784 -0.833725 -0.815421
-0.30209 0.213937 -1.39344
-0.086586 0.90068 -0.638653
-0.172184 0.846212 -0.756391
-0.198607 0.245854 -1.42311
-0.116286 0.328292 -1.40609
-0.067521 0.22898 -1.45663
0.211743 0.349478 -1.36906
-0.129953 0.0465834 -1.48564
-0.230736 0.470323 -1.27769
-0.26713 -0.245043 -1.39798
-0.18428 -0.148603 -1.45736
-0.0644058 -0.167559 -1.47563
-0.39859 -0.10073 -1.36737
-0.577659 -0.103865 -1.21447
-0.6019 -0.497704 0.936758
-0.517683 -0.506376 1.03444
-0.825741 -0.137686 0.82048
-0.848193 0.493338 0.289254
-0.881681 0.402138 0.370239
-0.821964 0.47413 0.473335
-0.796131 0.590409 0.19895
-0.502394 0.296752 1.21818
-0.0768997 -0.165493 1.47481
-0.743082 -0.308084 0.891097
0.336402 -0.921288 0.29264
-0.621314 0.512001 -0.889721
-0.580456 0.304065 -1.13309
-0.607402 0.412411 -1.01843
-0.514839 0.398669 -1.13842
0.289058 0.407625 -1.29929
0.0875768 0.945835 -0.468918
-0.334095 0.623284 -1.06055
-0.808427 0.359085 0.699558
-0.0538095 0.728211 -1.02486
-0.361823 -0.923883 -0.186891
-0.248108 -0.959108 -0.204316
-0.093271 -0.884835 -0.684708
0.134169 -0.0298112 -1.48576
-0.206942 0.775966 -0.893793
-0.101733 0.7943 -0.898421
-0.0314396 0.413629 -1.36485
-0.144681 0.427508 -1.33854
-0.421967 0.0165014 -1.35969
-0.265213 0.156596 1.42708
-0.37377 0.174082 1.36656
0.755164 -0.564458 0.500006
-0.693993 0.401946 -0.896007
0.167528 0.958142 -0.348241
-0.910225 0.234541 0.511938
-0.861646 0.363263 0.531616
-0.77794 0.459213 0.643311
-0.522749 0.734726 0.648499
-0.33297 -0.913175 -0.352553
0.0546171 0.194092 -1.46919
-0.0317952 0.120246 -1.48835
-0.150396 0.153008 -1.46507
0.00210039 0.663696 -1.122
-0.497472 -0.0487438 -1.29916
-0.249241 0.0998139 -1.44493
-0.295353 0.789245 -0.807578
