-0.2106 -0.00515 0.2698 -0.980707 0.0192536 0.194535
0.2123 0.25555 0.1157 0 1 0
-0.0814 -0.02565 -0.0261 0.000139018 -0.129319 -0.991603
0.2328 0.25555 -0.364 0 1 0
-0.2152 -0.02705 0.2538 -0.956639 0.0309311 0.28963
-0.2017 -0.246211 0.0582 0.000264556 -0.984733 0.174071
0.3841 0.09965 0.1623 0.000234074 0.174326 0.984688
-0.37633 -0.14805 -0.0117 0.000132137 -0.136978 -0.990574
-0.37403 -0.13025 -0.0141 0.00119941 -0.131125 -0.991365
-0.1828 -0.2006 -0.004 0.000209 -0.156888 -0.987616
-0.0011 -0.11785 0.46225 0.922034 0.0588091 0.382615
-0.0721 0.25555 -0.2091 0 1 0
-0.2628 0.19305 0.16 -0.70767 0.0157948 0.706367
0.0321 0.25555 0.2699 0 1 0
0.3278 0.12235 -0.0614 0.261528 -0.847859 -0.461234
-0.1205 -0.16418 -0.0095 -0.00172724 -0.143198 -0.989693
-0.1148 0.09215 -0.1122 -0.00152723 -0.922489 -0.386021
0.0835 0.25555 -0.3608 0 1 0
-0.207 -0.1871 0.3934 -0.83205 -0.546273 0.0963202
-0.4603 -0.00085 0.0786 -1 0 0
-0.0115 -0.07865 0.47197 0.70223 0.0971121 0.705296
0.2631 0.13065 0.1569 0.340086 -0.489653 0.802858
-0.0436 0.25555 -0.1603 0 1 0
-0.38893 0.21935 -0.0447 -0.147815 -0.0133699 -0.988925
0.3274 0.13245 -0.0032 0.236186 -0.777781 -0.582472
-0.4603 -0.00695 -0.0278 -0.713055 -0.0612655 -0.698426
-0.4603 0.23545 0.043 -1 0 0
-0.43279 0.22085 0.1037 0.000180565 0.0119497 0.999929
-0.0012 0.16215 -0.3134 -0.691521 -0.020332 -0.72207
-0.1217 0.14675 -0.1788 -0.710107 -0.0254577 -0.703634
0.1584 0.25555 -0.0522 0 1 0
-0.1768 0.25555 -0.133 -0.423043 0.706633 -0.567189
0.3558 0.20895 -0.4915 -0.157506 -0.0138304 -0.987421
-0.1683 -0.1975 0.3344 -0.000177328 -0.984833 0.173508
-0.207 0.12335 0.41875 -0.995253 0.00503201 0.0971959
0.405 0.15575 -0.4513 0.0599155 -0.998203 0.00114272
0.2869 0.25555 -0.3061 0 1 0
0.218 0.13605 -0.2098 0.50231 -0.851621 0.149755
0.2095 0.12205 -0.2603 0.261252 -0.965161 -0.0145864
-0.0139 0.25555 0.1926 0 1 0
0.3851 0.25555 -0.1617 0 1 0
-0.38678 -0.252315 0.0235 0.00016753 -0.984825 0.173548
0.1229 0.12335 -0.2673 0.000497221 -0.984629 -0.174658
0.1623 -0.03745 0.1865 0.00253168 0.173052 0.984909
0.1605 0.10625 0.3298 0.116118 0.0564209 0.991632
0.1518 0.10145 -0.1436 0.332282 -0.942662 -0.0312652
0.0452 0.25555 0.046 0 1 0
-0.2129 0.25555 0.1333 0 1 0
-0.1603 0.11905 -0.1427 -0.630039 -0.0370103 -0.775681
0.2079 0.25555 -0.3917 0 1 0
0.0568 -0.16857 0.2832 0.995616 -0.0921276 0.0161953
0.0026 -0.18043 0.43123 0.599969 -0.787848 0.139044
0.2667 -0.00305 0.0207 0.43816 -0.66871 -0.600702
0.0761 -0.08175 0.2495 0.948195 -0.312895 0.0549782
-0.0849 -0.18365 0.41301 -1.86093e-06 -0.984888 0.173193
0.1466 0.12055 0.3307 0.120892 0.0524718 0.991278
0.1733 -0.08175 0.0346 0.000275753 -0.174353 -0.984683
-0.1883 0.25555 0.2737 0 1 0
-0.207 -0.05095 0.3935 -1 0 0
0.3612 0.14365 -0.0652 0.000578719 -0.172925 -0.984935
0.0658 -0.12035 0.2379 0.973873 -0.223642 0.0394502
0.3443 0.19045 -0.192 0.240017 -0.955982 0.16879
0.1953 0.16685 -0.444 -0.396741 -0.0234521 -0.917631
0.1862 0.24265 -0.4411 -0.412666 -0.00497371 -0.910869
0.2285 0.25555 0.0586 0 1 0
-0.207 -0.09175 0.3785 -1 0 0
-0.35 -0.25555 0.0052 5.33369e-05 -0.81874 -0.574165
0.084 0.25555 -0.1336 0 1 0
0.104 0.25555 -0.397 -0.447772 0.552717 -0.702854
0.2864 0.25555 -0.3158 0 1 0
-0.037 -0.22486 0.1792 0.000124792 -0.984839 0.173471
0.4409 0.21745 -0.1175 0.0429587 -0.984057 0.17259
0.4025 0.15045 -0.0064 0.104071 -0.811789 -0.574602
-0.0392 -0.23399 0.1275 -0.00042177 -0.984762 0.173907
0.0658 -0.10455 0.3271 0.973831 -0.223858 0.0392585
-0.1878 0.05815 -0.0638 -0.0118237 -0.681246 -0.731959
0.3287 0.25555 0.0074 0 1 0
0.4429 0.16705 -0.4034 0.0329605 -0.984154 0.174226
-0.0829 -0.22282 0.1908 4.20584e-05 -0.98482 0.17358
0.073 0.21265 -0.3759 -0.580728 -0.0116646 -0.814014
0.4229 0.19825 0.2553 0.0920265 -0.98055 0.173357
0.4603 0.13845 0.1183 1 0 0
-0.2767 0.13005 0.1496 -0.634462 0.0350785 0.772157
0.2797 0.16125 0.2802 0.445708 -0.881788 0.154255
-0.2152 -0.08725 0.261 -0.956508 0.0377016 0.289258
0.3746 0.07855 0.1661 0.200758 -0.544133 0.814626
0.1888 0.25555 -0.19 0 1 0
0.1063 0.07485 0.3387 0.136783 0.0692212 0.98818
-0.0973 0.25555 -0.0991 0 1 0
0.2779 0.25555 -0.1673 0 1 0
0.0365 -0.22763 0.1636 0.000234657 -0.984837 0.173484
0.1935 -0.07035 0.1124 0.856686 -0.508164 0.0886506
0.422 0.25555 0.2704 0 1 0
-0.1403 -0.13175 0.493835 0 0.158882 0.987298
0.0204 0.11295 -0.2085 0.00014634 -0.985182 -0.171511
-0.2581 -0.05945 -0.0226 0.00019558 -0.108101 -0.99414
0.1501 -0.19345 0.1142 0.990749 -0.133505 0.0243347
0.0866 -0.00565 -0.0294 -0.00266156 -0.22295 -0.974826
-0.0387 0.25555 -0.2758 -0.618781 0.554197 -0.556754
0.1234 0.25555 -0.366 0 1 0
0.3851 0.25555 -0.3872 0 1 0
-0.2034 0.06825 0.44057 -0.924168 0.0287541 0.380902
-0.4603 -0.08335 -0.0199 -0.707837 -0.082317 -0.701563
-0.2045 -0.21125 0.2564 -5.59072e-05 -0.984837 0.173481
0.1165 -0.17977 0.0519 0.00031223 -0.174149 -0.984719
-0.2295 0.15315 0.2062 -0.881865 0.0183579 0.471144
0.258 0.09435 -0.037 0.494434 -0.855763 0.152329
0.4409 0.20395 -0.1936 0.0403678 -0.983937 0.173894
0.0405 0.21705 0.3426 0.163068 0.0155297 0.986493
0.1937 -0.07345 0.093 0.850836 -0.517415 0.091435
0.1811 0.05105 -0.0489 0.00112606 -0.173326 -0.984864
-0.2079 0.13585 0.2782 -0.995351 0.00421648 0.0962166
0.4067 0.15925 0.1518 -0.000895185 0.174051 0.984736
-0.1295 -0.24278 0.0776 -2.36021e-06 -0.984809 0.173643
0.1609 0.07925 0.3314 0.559367 -0.39633 0.728032
0.26 0.00865 0.1185 0.640555 -0.756293 0.133076
0.4038 0.25555 0.1577 0 1 0
0.2774 0.15755 -0.0676 3.99132e-05 -0.173741 -0.984791
0.0115 0.13335 -0.3243 -0.444785 -0.665451 -0.599451
-0.36046 0.14945 0.1092 -0.195413 0.0369669 0.980024
-0.2213 -0.05945 -0.0226 0 -0.108492 -0.994097
-0.1043 -0.18034 0.43178 -0.000163557 -0.984829 0.17353
-0.207 0.03965 0.3234 -1 0 0
-0.44777 0.13055 0.1063 -0.00120253 0.0443682 0.999015
-0.0033 0.08995 -0.1072 0.000973798 -0.904192 -0.427125
0.1464 0.25555 -0.0335 0 1 0
0.3302 0.03505 0.014 0.299438 -0.755151 -0.583166
0.4603 0.16075 -0.4795 0.832747 -0.545215 -0.0962984
0.233 0.25555 -0.1682 0 1 0
-0.2152 -0.06725 0.2584 -0.956614 0.0348229 0.28927
0.0428 -0.02265 0.357 0.161 0.105228 0.981329
0.0549 0.09095 -0.1095 0.00195915 -0.911591 -0.411094
-0.0269 0.23695 0.45941 0.380144 0.00683874 0.924902
0.1202 0.24185 -0.4068 -0.505534 -0.00146441 -0.862805
-0.1662 -0.245983 0.0595 -0.000408736 -0.984857 0.173368
0.1623 0.16445 -0.4285 -0.447103 -0.0236691 -0.894169
0.443 0.16375 -0.4221 0.0384188 -0.984121 0.173291
-0.0269 0.07025 0.46637 0.38041 0.0701661 0.922152
-0.0097 0.25555 -0.2002 0 1 0
0.1105 -0.22895 0.0605 0.000454216 -0.173541 -0.984827
0.1403 0.11335 -0.2109 0.00106947 -0.98473 -0.174087
-0.38874 -0.00785 -0.0289 -0.00789387 -0.220176 -0.975428
0.2407 0.09095 0.0041 0.387508 -0.705454 -0.593441
-0.41854 -0.23072 0.146 -0.00157164 -0.575695 0.817663
-0.0697 -0.18322 0.41536 0.000408874 -0.984731 0.17408
-0.2805 -0.22757 0.1639 0.000112102 -0.984827 0.173539
0.0997 0.25555 -0.0689 0 1 0
-0.0754 0.25555 0.1959 0 1 0
0.3874 0.16675 -0.0693 0.00133096 -0.170922 -0.985284
0.0002 0.22435 -0.316 -0.689074 -0.005904 -0.724667
0.2525 0.21875 -0.4666 -0.311598 -0.0101839 -0.950159
-0.4603 0.14425 0.0001 -1 0 0
0.0933 0.25555 -0.1675 0 1 0
-0.2638 -0.09375 -0.0187 0 -0.117661 -0.993054
0.1978 0.25555 -0.3681 0 1 0
0.1062 0.25555 0.1562 0 1 0
0.3342 0.17355 -0.487 -0.189245 -0.026491 -0.981573
0.2575 0.03585 0.0138 -0.00123183 -0.174603 -0.984638
-0.1626 0.21975 -0.1437 -0.623702 -0.00860089 -0.781615
-0.2917 0.23455 0.1357 -0.5558 0.00563531 0.831297
0.1589 -0.14145 0.1649 0.962089 -0.26889 0.0456339
0.1733 0.21715 0.3243 0.111973 0.0143234 0.993608
-0.0387 -0.18699 0.394 -0.000160842 -0.984772 0.173848
-0.207 0.14035 0.3775 -1 0 0
-0.0685 0.25555 0.0415 0 1 0
0.108 -0.08665 0.0354 0.0026112 -0.17377 -0.984783
0.2366 0.23075 -0.4613 -0.3351 -0.00764495 -0.942152
0.3287 0.25555 -0.0678 0 1 0
0.2234 0.14335 -0.186 0.48812 -0.859549 0.151374
0.4415 0.25555 -0.4997 -0.023494 0.707331 -0.706492
0.2039 0.13915 -0.3573 0.000848541 -0.984996 -0.172575
0.0973 0.19805 0.3342 0.142548 0.0210934 0.989563
0.0761 -0.06915 0.3208 0.948053 -0.313358 0.0547835
-0.207 0.11915 0.3381 -1 0 0
-0.1022 0.25555 0.0587 0 1 0
-0.1308 -0.1795 0.43646 -0.000120593 -0.98486 0.173351
-0.1931 0.08795 0.4546 -0.707755 0.048128 0.704817
-0.4603 0.05155 0.0258 -1 0 0
0.1541 0.25555 -0.384 0 1 0
-0.1948 0.25555 0.0133 0 1 0
0.3074 0.08515 0.0051 0.0011841 -0.174258 -0.984699
0.1924 0.25555 0.3219 0.0722356 0.70894 0.701559
0.182 0.19125 -0.4386 -0.417424 -0.0186017 -0.908521
0.2083 0.14315 -0.1369 0.523327 -0.839203 0.147876
0.3098 0.25555 0.0798 0 1 0
0.0658 -0.11715 0.2557 0.973872 -0.223633 0.0395267
0.3164 0.15755 -0.0676 -3.6039e-05 -0.174523 -0.984653
-0.0722 -0.23049 0.1473 4.32335e-05 -0.984795 0.173723
0.0356 0.09685 -0.1248 0.000744376 -0.950222 -0.311571
0.2265 0.13815 -0.2256 0.484461 -0.861327 0.153013
-0.36859 0.06795 -0.0425 -0.195191 -0.0603062 -0.978909
-0.1203 -0.17422 0.4664 -0.000190331 -0.98473 0.174089
0.0656 0.25555 -0.3248 0 1 0
0.3216 0.25555 -0.3596 0 1 0
0.1947 0.25555 0.1403 0 1 0
0.2714 0.01415 0.0975 0.605023 -0.783985 0.138976
0.4603 0.12035 0.1214 1 0 0
-0.0264 0.20715 -0.2889 -0.729235 -0.0102086 -0.684187
0.0344 0.25555 -0.0952 0 1 0
-0.4603 -0.03735 0.0822 -1 0 0
-0.1618 -0.04245 -0.0244 0 -0.103293 -0.994651
-0.4603 0.18095 -0.0196 -1 0 0
-0.0744 -0.2368 0.1116 9.76078e-05 -0.984711 0.174197
-0.0626 0.17045 -0.2468 -0.761247 -0.018426 -0.6482
-0.0858 0.11455 -0.2176 -0.504909 -0.669983 -0.544234
-0.2664 -0.11115 -0.0166 0 -0.124702 -0.992194
-0.207 0.15725 0.3162 -1 0 0
-0.43492 0.18875 0.1043 0.00297821 0.0255244 0.99967
-0.4603 0.03325 0.0063 -1 0 0
-0.1931 -0.04175 0.46695 -0.707626 0.0852083 0.701431
0.3461 0.13145 -0.0435 0.282201 -0.94482 0.166364
0.0568 -0.178 0.2297 0.99562 -0.0920778 0.0162108
0.0819 0.00935 -0.0339 -0.00231637 -0.34578 -0.938313
0.4217 0.25555 0.2892 0 1 0
-0.2152 -0.16734 0.2726 -0.956628 0.0462817 0.287613
0.4234 0.13445 -0.0036 0.00115688 -0.174676 -0.984625
-0.42437 0.08635 -0.036 -0.0748813 -0.0564403 -0.995594
0.2669 0.25555 0.0931 0 1 0
0.0785 0.06495 -0.0706 -0.00298271 -0.726811 -0.686831
0.2256 0.07405 -0.0334 0.572111 -0.807738 0.142298
0.1473 -0.22139 0.199 0.69931 -0.70394 0.124237
0.1693 0.09285 -0.0562 -0.0014342 -0.17479 -0.984605
-0.2717 0.02205 -0.0392 -0.00235206 -0.437315 -0.899305
0.2014 0.09845 0.2177 0.638956 -0.757595 0.13336
0.0392 -0.09285 -0.0188 -0.000304356 -0.119026 -0.992891
-0.4603 0.23735 0.0849 -1 0 0
-0.37142 0.25555 -0.0479 -0.136486 0.705878 -0.695059
0.1137 0.12005 -0.249 0.000132928 -0.984576 -0.174955
-0.0093 0.11425 -0.2158 -0.000239262 -0.984837 -0.173483
-0.237 0.18405 -0.0942 -0.468978 -0.0220942 -0.882933
0.1158 0.01725 0.324 0.853953 -0.512432 0.090433
-0.1566 -0.09355 -0.0187 -0.000795531 -0.119473 -0.992837
-0.1357 -0.17408 0.46718 0.000130519 -0.984744 0.174011
-0.38843 0.14065 -0.0427 -0.145829 -0.0382343 -0.988571
0.1557 0.25555 -0.0187 0 1 0
0.1555 -0.16831 0.0898 0.973586 -0.225025 0.0386548
-0.1561 -0.18151 0.42506 0.00014595 -0.984823 0.17356
0.0026 -0.01095 0.40726 1 0 0
0.0233 0.12675 -0.2868 -4.57326e-05 -0.984903 -0.173105
0.4216 0.18605 -0.2886 0.0797595 -0.981816 0.172268
0.3506 0.19975 -0.1481 0.2274 -0.958962 0.169353
0.3858 0.19315 0.2562 0.184295 -0.967861 0.171113
0.1183 0.09685 -0.1248 0.00469056 -0.943654 -0.3309
0.3337 0.04685 0.0718 0.405268 -0.900343 0.158559
0.0983 0.25555 0.003 0 1 0
0.446 0.07285 0.0672 0.0370843 -0.984153 0.173402
0.3851 0.25555 -0.2745 0 1 0
0.2891 0.23145 -0.4776 -0.255529 -0.00363252 -0.966795
0.0442 0.11965 -0.2465 0.00010975 -0.98494 -0.172896
0.1319 0.17505 -0.4127 -0.491624 -0.0218587 -0.870533
-0.3283 -0.16462 -0.0094 -0.000600905 -0.14371 -0.98962
-0.0362 0.25555 -0.0464 0 1 0
0.0658 0.25555 -0.1112 0 1 0
-0.36841 -0.25233 0.0234 -0.000244721 -0.984835 0.173496
0.0002 -0.1638 -0.0095 0.00103608 -0.142284 -0.989825
0.2797 0.14555 0.191 0.445831 -0.881355 0.15636
0.3424 0.23205 -0.4894 -0.177519 -0.00718824 -0.984091
-0.1251 -0.18229 -0.0068 -0.00075435 -0.148506 -0.988911
0.0657 0.07095 -0.0773 0.00268044 -0.766027 -0.642803
0.4603 0.16415 -0.4988 0.538426 -0.548894 -0.639385
0.2354 0.17045 -0.0699 0.329356 -0.73861 -0.588201
0.0654 0.25555 0.2458 0 1 0
-0.1777 0.18135 0.46034 -0.384313 0.0271881 0.922802
0.3602 0.23225 -0.4924 -0.149728 -0.0071232 -0.988702
-0.207 0.19795 0.3755 -1 0 0
0.1176 -0.03395 0.0082 0.844406 -0.52769 0.0923127
-0.0641 0.18145 0.46403 0 0.0305257 0.999534
-0.2924 -0.04255 -0.0244 0 -0.102691 -0.994713
0.4603 0.23675 -0.3309 1 0 0
-0.0227 0.25555 -0.0356 0 1 0
0.4603 0.24085 -0.083 1 0 0
0.0237 -0.07355 0.3663 0.167282 0.127286 0.977658
-0.207 -0.11655 0.3412 -1 0 0
-0.2015 0.25555 -0.0724 0 1 0
-0.2079 -0.08255 0.2973 -0.995349 0.0123404 0.0955388
0.1608 0.06025 0.2244 0.738229 -0.664391 0.116626
-0.2841 -0.11115 -0.0166 0.00034668 -0.12475 -0.992188
0.1173 0.08265 -0.0717 0.701885 -0.700813 0.127354
-0.1931 -0.02325 0.46477 -0.707712 0.0801008 0.701945
0.1252 0.08555 -0.0988 0.388558 -0.904084 -0.177919
-0.0258 0.04765 -0.0549 -0.000228278 -0.606746 -0.794896
-0.0256 0.11765 -0.2353 -0.00144174 -0.984785 -0.173769
-0.2034 0.23675 0.43355 -0.938618 0.00286409 0.344948
0.3083 0.25555 -0.3566 0 1 0
-0.3138 -0.2391 0.0984 -0.000251952 -0.984801 0.173685
0.4415 0.25555 -0.2933 0 1 0
-0.0624 -0.02565 -0.0261 -0.00077595 -0.131026 -0.991379
-0.207 -0.05575 0.3535 -1 0 0
0.3966 0.20015 -0.0752 0.000290076 -0.172735 -0.984968
-0.3502 -0.2452 0.0639 -0.000267433 -0.984869 0.1733
-0.013 0.25555 -0.3032 -0.500482 0.705552 -0.501711
0.022 0.02755 -0.042 -0.000589679 -0.487426 -0.873164
0.2848 0.25555 -0.3251 0 1 0
0.2925 0.25555 -0.3857 0 1 0
-0.3352 0.02075 -0.0386 0.00127192 -0.426976 -0.904262
-0.44777 0.05715 0.1105 -9.40652e-05 0.0706041 0.997504
0.4039 0.25555 0.0638 0 1 0
0.4233 0.16055 -0.4782 -0.000848032 -0.984834 -0.173495
0.4603 0.23675 -0.406 1 0 0
0.126 0.02645 0.2856 0.825458 -0.555824 0.0983824
0.4033 0.06805 0.0681 0.181608 -0.968444 0.170691
0.2476 -0.01575 0.0429 0.676061 -0.725752 0.127379
-0.203 -0.05945 -0.0226 0.000196207 -0.10843 -0.994104
0.1668 0.02495 -0.0191 0.722604 -0.680706 0.120346
0.4039 0.25555 -0.3497 0 1 0
0.1485 0.05265 0.2626 0.769295 -0.629052 0.111707
-0.42278 -0.15215 0.1333 -0.000143792 0.145985 0.989287
0.2914 0.25555 -0.165 0 1 0
0.0878 0.19925 -0.3859 -0.559066 -0.0161069 -0.828967
0.3141 0.19335 -0.1269 0.298883 -0.939743 0.16599
0.4227 0.25555 0.139 0 1 0
0.2081 0.21715 0.3206 0.0966802 0.0151334 0.9952
-0.0253 -0.20034 -0.004 0.000501989 -0.153753 -0.988109
-0.44315 -0.13805 -0.0131 0.0015508 -0.135519 -0.990774
0.3663 0.25555 -0.1241 0 1 0
-0.207 0.17635 0.2954 -0.99971 0.000687798 0.0240655
0.4176 0.07375 0.087 0.132181 -0.976137 0.17229
-0.1775 -0.16894 0.496414 -0.264775 -0.419097 0.868477
0.4603 0.13085 0.0767 1 0 0
0.1495 0.18945 -0.4226 -0.46527 -0.0168907 -0.885008
0.1618 0.25555 -0.0414 0 1 0
-0.1699 -0.1725 0.47621 -2.89302e-05 -0.984826 0.173547
0.2112 0.25555 -0.4317 0 1 0
0.1599 -0.15858 0.0481 0.676569 -0.320394 -0.663025
0.1388 0.13435 -0.3296 -0.00128615 -0.984697 -0.174273
-0.2777 0.25555 -0.0562 0 1 0
-0.2177 -0.04255 -0.0244 0 -0.102999 -0.994681
-0.2106 -0.06505 0.2765 -0.980787 0.0232069 0.193699
0.2672 0.16625 -0.1802 0.39351 -0.90528 0.160058
-0.2503 0.02785 0.1827 -0.773527 0.0524808 0.631587
0.291 0.01395 0.0177 0.386966 -0.706466 -0.59259
-0.2503 0.23475 0.1733 -0.77282 0.00424829 0.634612
0.3645 0.14325 -0.0051 0.170899 -0.79808 -0.577808
0.0007 -0.20538 0.2897 -0.000229801 -0.984811 0.173628
0.1158 -0.00165 0.217 0.850512 -0.518048 0.0908572
0.1936 -0.06685 0.1318 0.852172 -0.515576 0.0893563
-0.3224 -0.23727 0.002 1.51679e-05 -0.167214 -0.985921
0.3462 0.12815 -0.0625 0.192987 -0.791135 -0.580397
0.4415 0.25555 0.0826 0 1 0
0.2215 0.25555 -0.4558 -0.250493 0.706657 -0.661732
0.2572 0.10085 0.0024 0.357608 -0.721799 -0.592556
0.4106 0.15935 -0.4346 0.0976024 -0.979988 0.173485
0.2723 0.25555 -0.1054 0 1 0
0.0182 -0.21795 0.2184 -2.8623e-05 -0.984786 0.173772
0.3609 0.05725 0.07 0.319152 -0.933231 0.164991
-0.40676 0.25555 -0.0425 -0.0831596 0.70653 -0.70278
0.0349 -0.24191 0.0826 0.000130703 -0.984817 0.173597
-0.2214 -0.245983 0.0595 -1.68847e-05 -0.984722 0.174135
0.4157 0.05985 0.0096 0.106172 -0.810317 -0.576293
-0.0641 0.25555 0.46292 0 0.800929 0.59876
0.4603 0.23675 0.0638 1 0 0
0.3624 0.18425 -0.2508 0.202246 -0.964292 0.170991
-0.0231 -0.17257 0.47577 0.00016604 -0.984881 0.17323
-0.39766 -0.10465 0.1267 -0.0257847 0.130525 0.99111
0.0125 0.07285 -0.0797 -0.00476678 -0.782434 -0.622716
-0.1777 0.18185 -0.1314 -0.59374 -0.0194747 -0.804421
0.1101 -0.22462 0.1806 -0.000168505 -0.98484 0.173466
0.4227 0.25555 -0.1241 0 1 0
0.147 0.09225 0.3322 0.120579 0.0621164 0.990758
0.1809 0.03455 -0.046 0.401326 -0.61559 -0.678223
0.2912 0.25555 0.0074 0 1 0
-0.4603 0.17945 0.0216 -1 0 0
0.3358 0.20855 -0.0766 0.175696 -0.795854 -0.579438
0.0185 -0.19203 0.3655 -0.000455147 -0.984733 0.174069
-0.007 0.25555 -0.1217 0 1 0
0.2592 0.25555 0.1375 0 1 0
-0.1662 -0.25555 0.0052 0 -0.8186 -0.574365
0.2515 0.17515 -0.089 0.423256 -0.892401 0.156445
0.3821 0.18115 -0.2891 0.15998 -0.972177 0.171107
-0.0074 -0.12805 -0.0144 0.000761344 -0.13182 -0.991273
-0.14 -0.23475 0.1232 -0.000167573 -0.984858 0.173366
-0.051 0.17195 -0.2605 -0.758848 -0.0180895 -0.651017
0.1485 0.04635 0.2269 0.769229 -0.629149 0.111616
0.0705 -0.08985 0.3061 0.961431 -0.270881 0.0476836
0.406 0.21835 -0.0969 0.115076 -0.97864 0.170357
0.4603 0.21065 -0.3029 1 0 0
0.129 -0.22985 0.0607 -0.00038728 -0.171785 -0.985134
0.2306 0.23635 0.3183 0.0889114 0.00766999 0.99601
-0.0269 0.18135 0.46045 0.380113 0.0283479 0.924505
0.1715 0.25555 0.143 0 1 0
0.422 0.25555 0.3084 0.00722349 0.832746 0.553609
0.2586 0.25555 0.1777 0 1 0
0.2617 0.15875 -0.4684 -0.193785 -0.655402 -0.729997
-0.4603 0.01745 0.0771 -1 0 0
-0.2391 0.13195 0.1911 -0.831294 0.0250925 0.555266
-0.3246 0.25555 0.118 -0.28002 0.709691 0.646474
-0.2079 0.11595 0.2792 -0.99535 0.00507441 0.0961927
0.3278 0.12565 -0.0425 0.323166 -0.931768 0.165442
0.218 0.25555 -0.4151 0 1 0
-0.2152 0.07365 0.245 -0.956608 0.0200838 0.290686
0.3315 0.18235 0.2765 0.317536 -0.933817 0.16479
-0.37897 0.14935 0.1064 -0.0989928 0.037515 0.994381
-0.0452 0.25555 -0.1857 0 1 0
-0.43302 -0.20344 -0.0035 -0.00218064 -0.157343 -0.987542
0.2391 0.13045 -0.3076 0.227196 -0.973776 -0.0119179
0.0616 -0.17304 0.031 0.980604 -0.19302 0.0340477
0.2875 0.25555 -0.2713 0 1 0
0.1292 0.25555 -0.1464 0 1 0
0.4603 0.25555 -0.2745 0.5547 0.83205 0
0.3675 0.19245 0.2747 0.228089 -0.958771 0.169512
-0.1593 0.19995 0.46355 -0.0988312 0.0223046 0.994854
0.2631 0.25555 -0.2793 0 1 0
-0.42591 -0.00745 -0.029 -0.027982 -0.150338 -0.988239
-0.2386 -0.24314 0.0755 0.000476744 -0.984725 0.174117
0.1476 -0.23077 0.0608 0.79853 -0.140853 -0.585243
0.2561 0.16385 -0.0688 0.00163307 -0.173386 -0.984853
0.1784 0.25555 -0.2818 0 1 0
0.2555 0.01155 0.0181 -0.000866646 -0.173327 -0.984864
-0.39339 -0.14935 -0.0115 -0.000445673 -0.137948 -0.990439
-0.2215 0.11305 0.225 -0.923991 0.0196664 0.381907
0.2285 -0.02445 0.1043 0.74613 -0.655724 0.11539
0.005 0.25555 0.1771 0 1 0
-0.1965 0.06915 -0.0753 0.00539063 -0.771619 -0.636063
-0.2034 -0.04365 0.45164 -0.924204 0.0459265 0.379128
-0.44232 -0.01605 -0.0273 -0.0149756 -0.114016 -0.993366
0.0009 0.25555 -0.2392 0 1 0
-0.2338 0.16115 -0.0953 -0.480563 -0.0257574 -0.876582
0.2061 0.08665 -0.0551 -0.000528988 -0.172714 -0.984972
0.075 -0.18424 0.2124 -0.000167683 0.174803 0.984603
0.3475 0.25555 -0.0302 0 1 0
-0.1004 0.04265 -0.0512 -0.00279547 -0.581214 -0.813746
-0.1658 0.25555 0.3344 0 1 0
0.17 0.25555 -0.0321 0 1 0
0.3287 0.25555 0.045 0 1 0
0.3315 0.17295 0.223 0.319891 -0.933481 0.16212
0.1086 -0.23506 0.1214 0.000112258 -0.984837 0.173481
-0.1666 0.25555 0.2906 0 1 0
0.1104 -0.21797 0.2183 -6.61691e-05 -0.575132 0.818061
-0.0392 0.12425 -0.2725 -0.588995 -0.532697 -0.607716
0.0136 0.10815 -0.1813 -0.000640292 -0.984322 -0.176377
0.1087 -0.04545 0.0282 0.60869 -0.474855 -0.635617
-0.0011 -0.02505 0.44983 0.92222 0.0441022 0.384142
-0.2106 0.19525 0.2577 -0.980815 0.00432342 0.194891
0.4603 0.23675 0.1578 1 0 0
-0.207 -0.05815 0.3334 -1 0 0
-0.1031 -0.22752 0.1642 6.56738e-05 -0.9848 0.173694
0.0561 -0.21507 0.0178 0.996501 -0.0823787 0.0141186
0.4021 0.06095 0.0294 0.186579 -0.967618 0.170009
-0.39633 -0.167 -0.009 8.75947e-05 -0.143711 -0.98962
0.2024 0.25555 -0.3517 0 1 0
0.3315 0.16985 0.2051 0.317242 -0.933886 0.164971
0.387 0.12935 -0.0026 -0.000435274 -0.173747 -0.98479
0.017 -0.16364 -0.0095 -0.000528719 -0.142813 -0.98975
-0.15 0.25555 -0.1308 0 1 0
-0.1238 0.08855 -0.1045 -6.48407e-05 -0.892154 -0.451732
0.4252 0.11625 -0.0003 0.000564412 -0.17479 -0.984605
0.1873 0.08325 0.202 0.674944 -0.726716 0.12781
-0.2152 -0.04715 0.2561 -0.95656 0.0333364 0.289623
-0.44043 0.25555 -0.0008 0 1 0
0.06 0.12535 0.3425 0.153521 0.0477551 0.986991
-0.42272 0.07925 0.109 -0.00253564 0.0623289 0.998052
-0.0641 0.08895 0.4686 0 0.0676815 0.997707
-0.0663 0.25555 0.3924 0 1 0
-0.1777 0.14425 0.46173 -0.384808 0.0418834 0.922046
-0.3025 0.25555 -0.0664 -0.23933 0.705306 -0.667281
0.1366 0.25555 0.1894 0 1 0
0.1712 0.25555 0.3049 0 1 0
0.2725 0.25555 0.0263 0 1 0
-0.098 -0.07625 -0.0208 0.000304429 -0.113337 -0.993557
-0.4603 0.12725 0.07 -1 0 0
-0.2261 0.25555 0.1483 0 1 0
-0.1403 0.16295 0.46468 0 0.0383497 0.999264
-0.207 -0.18008 0.43317 -0.554931 -0.819246 0.144525
0.3869 0.20955 -0.1323 0.14786 -0.973902 0.1722
-0.0185 -0.2147 0.2368 0.000258547 -0.984788 0.173758
0.3208 0.04435 0.0922 0.438976 -0.884679 0.156978
0.4413 0.16035 -0.4412 0.0429557 -0.984003 0.172893
0.2481 0.25555 0.2975 0 1 0
0.4216 0.19275 -0.2506 0.0803252 -0.981548 0.173528
0.2692 0.25555 -0.2695 0 1 0
-0.3135 -0.21899 -0.001 0.000134467 -0.159501 -0.987198
0.2536 0.25555 -0.0866 0 1 0
0.0342 0.25555 -0.1484 0 1 0
0.039 0.12285 -0.2646 0.00233023 -0.984641 -0.174578
-0.0428 -0.23139 0.1422 -0.000141092 -0.98477 0.173861
0.3324 0.16195 -0.4863 -0.124759 -0.654115 -0.746035
0.2024 0.23015 -0.4481 -0.387555 -0.00820514 -0.92181
0.285 0.25555 -0.4387 0 1 0
0.0155 -0.11035 -0.0167 0.00109528 -0.125405 -0.992105
0.1149 0.07755 -0.0861 0.404452 -0.882528 -0.239924
0.0238 0.12265 -0.2635 -0.000431189 -0.984568 -0.175001
0.1964 0.13145 -0.3134 -0.000376261 -0.984672 -0.174415
-0.1694 -0.20127 0.313 3.66814e-05 -0.9848 0.173694
0.3624 0.25555 0.2518 0 1 0
0.3139 0.16045 0.1884 0.360693 -0.918413 0.162537
-0.3366 0.21975 -0.0556 -0.257217 -0.012752 -0.96627
-0.41854 0.25555 0.1035 -0.00169666 0.708042 0.706168
-0.1593 0.08895 0.4686 -0.0991616 0.0676244 0.992771
0.027 0.25555 -0.0648 0 1 0
-0.2412 0.25555 0.1322 0 1 0
0.3085 0.15365 -0.3418 0.312263 -0.935505 0.165292
-0.2917 -0.01705 0.1491 -0.556072 0.0810468 0.827173
0.1497 0.25555 0.2879 0 1 0
-0.0004 -0.21792 0.2186 8.39362e-05 -0.984748 0.173985
0.1761 0.25555 -0.0426 0 1 0
0.0551 -0.20854 0.2718 0.699512 -0.703788 0.123953
0.0553 0.08795 0.3454 0.156836 0.0661513 0.985407
0.2725 0.13825 -0.352 0.189512 -0.981846 -0.00795179
-0.0684 -0.22712 0.1664 4.80966e-05 -0.984797 0.173712
-0.3554 0.11745 -0.048 -0.222369 -0.0431439 -0.974008
0.2287 -0.02765 0.0849 0.739193 -0.663162 0.117516
-0.1899 0.25555 0.2048 0 1 0
0.0125 0.25555 -0.2519 0 1 0
0.4603 0.22455 -0.0794 0.874477 -0.288817 -0.38971
-0.2531 0.20195 -0.0864 -0.439094 -0.0150745 -0.898315
0.0218 0.25555 0.22 0 1 0
-0.37897 -0.14665 0.1334 -0.0989909 0.142188 0.984877
0.4418 0.13575 -0.0038 -0.00107115 -0.1733 -0.984869
0.2584 0.25555 -0.2601 0 1 0
0.4603 0.19055 0.2015 0.805369 -0.583831 0.102576
-0.39644 0.25555 0.0619 0 1 0
-0.2851 0.25555 0.0719 0 1 0
-0.37897 0.10685 0.1083 -0.0982742 0.0530421 0.993745
-0.2215 -0.17013 0.2552 -0.923916 0.0610221 0.377697
0.1587 -0.10945 0.0395 -0.000437635 -0.174741 -0.984614
-0.4603 -0.248455 0.0454 -0.707082 -0.696391 0.122778
-0.0983 0.25555 0.0449 0 1 0
0.0803 -0.04205 -0.0244 -0.000674276 -0.103101 -0.994671
-0.36046 0.00125 0.1187 -0.196088 0.0900088 0.976446
-0.1489 0.25555 -0.1553 -0.465126 0.707157 -0.532528
0.0896 -0.03165 0.3326 0.917085 -0.392967 0.0673228
0.2126 -0.05345 0.0496 0.791769 -0.601519 0.106194
0.2919 0.17135 -0.2082 0.33746 -0.927232 0.162365
0.3454 0.25555 0.3106 0.0297498 0.708202 0.705383
-0.1412 0.25555 0.2865 0 1 0
-0.37134 0.21955 -0.0477 -0.180335 -0.011233 -0.983541
-0.39766 0.19175 0.1042 -0.0240946 0.0238734 0.999425
0.371 0.16815 -0.3514 0.184282 -0.967851 0.171186
0.4415 0.25555 -0.3872 0 1 0
0.1865 -0.07205 0.1726 0.873376 -0.479731 0.0840943
0.08 0.25555 -0.013 0 1 0
0.3494 0.16585 0.1506 0.189246 -0.546921 0.815514
0.2754 0.25555 -0.2848 0 1 0
-0.1659 -0.17552 0.45911 -0.000294201 -0.9848 0.17369
0.0048 -0.14575 -0.012 -0.00107201 -0.13609 -0.990696
-0.0015 0.12675 -0.2868 -0.000230227 -0.984747 -0.173995
-0.40892 0.07105 -0.0365 -0.107109 -0.0596557 -0.992456
-0.4603 -0.18786 0.0543 -1 0 0
-0.42281 0.19435 0.1041 -1.41348e-05 0.0228807 0.999738
0.032 0.04025 -0.0496 -0.000953436 -0.553777 -0.832664
0.1158 0.01095 0.2883 0.850425 -0.518129 0.0912071
-0.1356 0.23765 -0.1672 -0.683126 -0.00395762 -0.73029
0.4409 0.19395 -0.2508 0.0395236 -0.983996 0.17375
0.0026 0.13955 0.3514 0.765551 0.0288107 0.64273
-0.2215 0.09275 0.2261 -0.923745 0.0228746 0.382323
0.3246 0.23185 -0.486 -0.203179 -0.0063392 -0.979121
-0.1684 0.25555 0.2689 0 1 0
-0.1987 -0.22447 0.1815 2.71301e-05 -0.984781 0.173801
0.3075 0.25555 -0.3902 0 1 0
-0.1403 -0.07685 0.48564 0 0.136062 0.9907
-0.2069 -0.2189 -0.001 4.56403e-05 -0.161792 -0.986825
-0.4603 -0.13835 0.0064 -1 0 0
0.1796 -0.08825 0.1555 0.895505 -0.438075 0.078489
0.4227 0.25555 -0.049 0 1 0
-0.1022 0.25555 0.46292 0 0.708626 0.705584
0.1063 -0.01125 0.2554 0.873792 -0.478898 0.0845238
-0.0014 -0.24264 0.0784 8.00103e-06 -0.984782 0.173792
0.0719 0.03455 -0.046 0.156956 -0.536572 -0.829129
0.0975 -0.07185 -0.0021 0.894074 -0.440872 0.0791458
-0.1195 0.10145 -0.1436 0.00168218 -0.978955 -0.204068
0.143 0.25555 -0.16 0 1 0
-0.2737 -0.04255 -0.0244 9.54596e-05 -0.102809 -0.994701
-0.016 0.25555 0.3708 0 1 0
0.0374 0.11245 -0.2054 -6.71277e-05 -0.984915 -0.173038
0.2016 -0.05125 0.149 0.826255 -0.55481 0.0974097
-0.0655 -0.17112 0.48398 2.61076e-06 -0.984807 0.173653
-0.4603 0.21795 -0.0393 -0.609513 -0.0105859 -0.792705
0.1473 -0.23162 0.1409 0.549175 -0.822998 0.145194
0.1126 0.05975 -0.0504 -0.000236198 -0.172897 -0.98494
-0.1348 0.04635 -0.0539 0.0118415 -0.603729 -0.797102
-0.1358 0.25555 -0.1427 0 1 0
0.1673 0.02835 -0.003 0.72183 -0.681083 0.122834
0.1594 0.10455 -0.1611 0.320814 -0.946899 -0.0214625
0.0976 -0.03065 0.2405 0.894844 -0.439645 0.077244
0.2042 0.15295 -0.0668 0.373861 -0.713181 -0.592959
0.202 0.13205 -0.1774 0.533178 -0.832761 0.149099
-0.3998 -0.2418 0.0832 0.000245876 -0.984835 0.173494
0.091 -0.22793 0.1618 4.9768e-05 -0.98481 0.173637
-0.1777 -0.04055 0.47719 -0.384538 0.112035 0.916285
-0.2828 0.25555 0.1197 0 1 0
-0.0641 0.23695 0.463 0 0.00755565 0.999971
-0.2152 0.11405 0.2426 -0.956606 0.015275 0.290984
0.0039 0.25555 -0.1091 0 1 0
-0.42292 0.16155 -0.0395 -0.0782892 -0.0312779 -0.99644
0.1608 0.06345 0.2423 0.737824 -0.664616 0.117901
0.3822 0.07205 0.0074 -0.00142967 -0.173784 -0.984783
0.1369 0.04135 0.283 0.798685 -0.592578 0.10466
0.3227 0.05185 0.011 0.000708608 -0.174242 -0.984703
0.4603 0.20065 -0.4996 0.701685 -0.0123457 -0.71238
0.4231 0.20765 0.3088 0.0725821 -0.755414 0.651216
-0.0001 0.25555 0.2704 0 1 0
-0.2628 0.03955 -0.0491 -0.00456722 -0.555493 -0.831509
-0.0838 0.25555 -0.1954 0 1 0
-0.207 0.17995 0.4164 -0.995243 0.00284897 0.0973852
0.169 0.25555 0.2856 0 1 0
-0.37897 0.25555 0.1044 -0.0805302 0.708595 0.701005
-0.2391 0.00855 0.1995 -0.831502 0.0498138 0.553284
-0.1403 0.10745 0.46741 0 0.0601601 0.998189
0.1735 -0.10115 0.1578 0.916962 -0.392502 0.0715714
0.3663 0.25555 -0.1617 0 1 0
0.0214 -0.14935 0.3777 0.169881 0.154626 0.973258
-0.2503 0.19335 0.1739 -0.772936 0.0147296 0.634313
0.4603 0.23675 0.1765 1 0 0
-0.0115 -0.04175 0.46718 0.702566 0.0863451 0.70636
0.3638 0.25555 0.2906 0 1 0
0.043 0.22595 -0.3533 -0.624902 -0.00637422 -0.780677
0.0727 0.25555 -0.0376 0 1 0
0.4029 0.06455 0.0487 0.184264 -0.967683 0.172155
0.4421 0.21175 -0.4995 -0.0278954 -0.0124808 -0.999533
0.0148 0.25555 -0.0963 0 1 0
0.2655 0.13695 -0.064 0.000856242 -0.17254 -0.985002
0.2126 0.25555 -0.3178 0 1 0
0.0786 0.06945 0.3431 0.146199 0.0724369 0.9866
0.0551 -0.20539 0.2897 0.699512 -0.703773 0.124044
0.4227 0.25555 0.1014 0 1 0
0.3648 0.13305 -0.0633 0.160348 -0.800625 -0.577312
-0.0267 -0.16894 0.496414 0.310065 -0.594046 0.742273
0.1199 0.25555 0.1331 0 1 0
-0.0641 -0.02175 0.4787 0 0.113418 0.993547
0.3697 0.25555 -0.44 0 1 0
-0.0188 -0.19088 0.3719 0.000322912 -0.984841 0.173458
0.4415 0.25555 -0.0114 0 1 0
-0.207 0.10085 0.3594 -1 0 0
0.2643 0.25555 0.0579 0 1 0
0.126 0.03265 0.3213 0.829918 -0.549217 0.0979595
-0.36046 -0.08315 0.1277 -0.194103 0.120231 0.973585
-0.1191 -0.23179 0.14 9.62529e-05 -0.98482 0.173576
0.1165 0.15135 0.3331 0.134478 0.0408576 0.990074
0.4227 0.25555 -0.3685 0 1 0
-0.3244 -0.22818 0.1605 -0.283094 -0.584392 0.760489
0.3491 0.16925 -0.0697 -0.000895201 -0.173037 -0.984915
-0.0974 0.18385 -0.2063 -0.755782 -0.0152383 -0.654647
-0.43978 -0.24136 0.0857 -8.44159e-05 -0.984872 0.173286
-0.3797 -0.16589 -0.0092 -0.000279064 -0.14298 -0.989726
0.2161 0.10995 0.2157 0.601938 -0.786322 0.139168
0.1421 -0.15315 0.0472 -7.28217e-05 -0.174566 -0.984646
0.3773 0.23765 0.3095 0.0340686 0.00648811 0.999398
-0.0352 0.25555 0.3918 0 1 0
0.0467 0.03255 -0.0448 0.002202 -0.501837 -0.86496
0.2911 0.25555 -0.1805 0 1 0
0.0882 0.25555 -0.0649 0 1 0
-0.39766 0.04325 0.1116 -0.0241234 0.0750336 0.996889
0.4423 0.19595 -0.4992 -0.0278543 -0.0197556 -0.999417
-0.4603 -0.01555 0.1166 -0.707627 0.06723 0.703381
-0.0683 -0.18913 0.3819 -9.65562e-05 -0.984728 0.174102
0.0004 -0.21165 0.2542 0.00024102 -0.984808 0.173645
0.385 0.25555 0.1389 0 1 0
-0.0388 -0.21781 0.2192 -0.000509561 -0.984844 0.173444
0.31 0.25555 0.0074 0 1 0
0.4151 0.24435 -0.4985 -0.0670224 -0.00125112 -0.997751
0.4305 0.06155 0.0093 0.0732766 -0.815523 -0.574067
0.1801 0.01815 0.017 0.00205074 -0.173431 -0.984844
-0.0005 -0.22116 0.2003 -9.78791e-05 -0.984767 0.173881
0.3675 0.18935 0.2569 0.228238 -0.958792 0.169188
-0.40477 0.14255 -0.0406 -0.111594 -0.0385933 -0.993004
0.1166 -0.04135 -0.0245 0.614229 -0.446293 -0.650803
-0.0016 0.14665 -0.3125 -0.692152 -0.0245341 -0.721335
0.0808 0.15265 0.338 0.146662 0.040768 0.988346
0.0705 -0.09615 0.2704 0.961452 -0.270839 0.0475007
0.403 0.07825 0.1262 0.182709 -0.968093 0.171502
0.2306 0.25555 0.3183 0.061079 0.707787 0.703781
-0.0231 0.06825 -0.0742 0.00402479 -0.736159 -0.676796
0.1474 0.25555 0.2686 0 1 0
0.3618 0.17695 -0.2914 0.203853 -0.964079 0.170283
-0.0468 -0.14605 -0.012 0.000341174 -0.135706 -0.990749
0.0552 0.25555 -0.0725 0 1 0
0.4023 0.19425 -0.2312 0.118937 -0.977802 0.1725
-0.0115 0.18105 0.45027 0.702805 0.0217464 0.71105
-0.0269 0.16275 0.46109 0.38041 0.0353112 0.924143
0.1017 0.13265 -0.3203 0.000283026 -0.984958 -0.172791
0.1172 0.17255 0.3322 0.133522 0.0326191 0.990509
0.4603 0.25555 -0.0302 0.5547 0.83205 0
0.1473 -0.24188 0.0828 0.792112 -0.601157 0.105681
0.0463 -0.07575 -0.0208 -0.00155427 -0.113281 -0.993562
0.3209 0.25555 -0.3442 0 1 0
-0.0216 -0.23632 0.1142 0.000428908 -0.984843 0.173449
-0.41989 -0.24496 0.0653 0.000123507 -0.984849 0.173416
0.1557 -0.01405 0.1824 0.00270305 0.173571 0.984818
-0.2397 -0.252361 0.0233 0 -0.984831 0.173515
-0.4603 -0.10785 0.1088 -1 0 0
0.1873 0.02545 0.1754 -0.000749279 0.173779 0.984784
0.26 0.01555 0.1572 0.640903 -0.755744 0.134517
-0.4603 0.20095 0.0859 -1 0 0
0.3068 0.23165 -0.482 -0.229942 -0.00475578 -0.973193
-0.0831 0.21845 0.4632 0 0.014863 0.99989
0.2476 0.25555 -0.37 0 1 0
-0.278 -0.21896 -0.001 0.000134511 -0.15937 -0.987219
0.2089 0.07305 -0.0528 -0.000435073 -0.17237 -0.985032
-0.0602 -0.20043 -0.004 -0.000633772 -0.155456 -0.987843
0.2104 -0.03235 0.1856 0.560956 -0.301104 0.771145
0.0026 0.10285 0.3977 1 0 0
-0.3025 0.23765 -0.0663 -0.328786 -0.00633967 -0.944383
-0.3187 -0.249248 0.0409 -0.000259919 -0.984797 0.173711
0.189 0.14335 -0.0651 0.396227 -0.699683 -0.594515
0.1288 -0.21797 0.2183 -0.000157536 -0.575257 0.817973
-0.1077 -0.18228 -0.0068 0.000171916 -0.1496 -0.988747
0.0141 0.22485 -0.3288 -0.668539 -0.00662686 -0.743648
0.399 0.10285 0.1618 -0.00061679 0.173179 0.98489
0.3428 0.25555 0.2525 0 1 0
-0.073 -0.18222 -0.0068 0.000315823 -0.149487 -0.988764
-0.1778 0.21845 0.45949 -0.385681 0.0138197 0.922529
-0.207 0.12015 0.3583 -1 0 0
-0.4603 0.03045 -0.0309 -0.713958 -0.0551385 -0.698014
-0.287 0.08055 -0.0669 -0.364249 -0.053949 -0.929738
0.1937 0.00565 0.0192 -0.000340657 -0.17296 -0.984929
-0.4402 0.25555 -0.0212 0 1 0
0.1485 0.04325 0.209 0.769636 -0.628849 0.110493
0.3866 0.25555 -0.4415 0 1 0
-0.103 -0.17126 0.48322 1.63553e-05 -0.984781 0.1738
0.2968 0.16055 -0.4783 -0.159419 -0.655439 -0.738232
0.2176 0.11045 -0.0593 -0.00151904 -0.171812 -0.985129
-0.3351 -0.23222 0.1375 -0.000306386 -0.984816 0.1736
-0.1193 -0.02565 -0.0261 0 -0.129594 -0.991567
-0.44155 0.18045 -0.0389 -0.037452 -0.023912 -0.999012
0.247 0.12125 0.1585 0.367584 -0.472201 0.801192
-0.0269 -0.15065 0.493286 0.381265 0.154375 0.911485
0.4039 0.25555 -0.1241 0 1 0
-0.1289 0.25555 0.3784 0 1 0
0.0407 0.19795 0.3429 0.161838 0.0214942 0.986583
0.0549 0.10145 -0.1436 0.000512926 -0.977624 -0.210358
-0.3908 0.04895 -0.0374 -0.14108 -0.068138 -0.987651
0.1574 0.25555 0.1866 0 1 0
-0.0901 0.25555 0.2776 0 1 0
0.4227 0.25555 -0.0866 0 1 0
0.3146 0.16125 -0.4826 -0.143934 -0.65425 -0.742456
0.0729 -0.24202 0.082 -0.00014502 -0.984812 0.173627
-0.3386 -0.2467 0.0554 -2.31148e-05 -0.984802 0.173678
0.0026 0.02915 0.42557 0.995183 0.00901701 0.0976233
0.142 0.02155 -0.039 0.00752321 -0.405139 -0.914224
0.0551 -0.21482 0.2362 0.699514 -0.70377 0.124048
-0.2029 -0.14635 -0.0119 0.00043766 -0.13853 -0.990358
0.0135 0.19435 -0.3278 -0.668391 -0.0122401 -0.743709
-0.1572 0.01105 -0.0346 0.00102078 -0.353558 -0.935412
0.0437 -0.12755 -0.0145 0.00063768 -0.129489 -0.991581
0.2562 0.25555 -0.2106 0 1 0
0.2725 0.05095 0.1709 0.00195749 0.1741 0.984726
-0.43286 -0.19564 0.1401 -0.000721279 0.162314 0.986739
0.0427 0.12585 -0.2814 0.00198835 -0.984805 -0.173652
-0.0487 0.25555 0.40956 0 1 0
0.1162 0.25555 -0.2361 0 1 0
0.4603 0.25555 0.0638 0.707107 0.707107 0
-0.43517 -0.14675 0.1325 0.00234266 0.142547 0.989785
-0.3027 0.25555 0.0598 0 1 0
-0.2215 -0.19023 0.2585 -0.917871 0.0657786 0.391391
0.0113 0.11075 -0.1959 0.00170492 -0.984921 -0.172994
0.024 -0.03625 0.3617 0.169878 0.113925 0.978858
0.0568 -0.15913 0.3367 0.995614 -0.092121 0.0163329
-0.4603 -0.03915 0.0591 -1 0 0
-0.1593 0.25555 0.46292 -0.054794 0.834039 0.548978
0.2954 0.03045 0.0947 0.525728 -0.837781 0.14742
0.0349 -0.23851 0.1018 -3.30712e-05 -0.984742 0.174023
0.2732 0.24335 -0.4732 -0.27865 -0.00206255 -0.96039
-0.0369 0.25555 -0.2495 0 1 0
0.2682 0.02085 0.0165 -0.00077462 -0.173885 -0.984766
-0.2606 0.25555 -0.0634 0 1 0
0.4227 0.25555 -0.3121 0 1 0
-0.1347 0.12425 -0.1652 -0.682689 -0.0295864 -0.73011
-0.3423 -0.14565 0.1407 -0.28932 0.137875 0.947251
0.1583 0.25555 -0.1548 0 1 0
-0.0201 0.25555 -0.1615 0 1 0
0.0026 -0.06755 0.41395 1 0 0
-0.0419 0.10145 -0.1436 -0.00126402 -0.979452 -0.201676
0.2967 0.18515 -0.1401 0.336362 -0.927434 0.163483
-0.1212 -0.04005 0.48088 0 0.121694 0.992568
0.4226 0.25555 0.1765 0 1 0
-0.0677 -0.17417 0.4667 0.000223785 -0.984736 0.174057
0.1194 0.25555 0.2135 0 1 0
0.1903 -0.05565 0.03 -0.000600627 -0.172003 -0.985096
0.0717 0.13055 -0.3084 -0.00106168 -0.984732 -0.174073
-0.1916 0.25555 -0.0555 0 1 0
-0.3012 0.25555 -0.0071 0 1 0
0.4409 0.20735 -0.1746 0.0385251 -0.983808 0.175036
-0.1087 0.10985 -0.1909 -0.483289 -0.670126 -0.563349
-0.4603 -0.13255 0.0465 -1 0 0
0.1661 0.11495 -0.2196 -0.000236414 -0.984891 -0.173177
0.0565 0.10505 -0.1639 -0.000461644 -0.984712 -0.174189
0.1979 0.14335 -0.3811 0.000294286 -0.984731 -0.174082
0.0369 -0.20539 0.2897 -0.000272049 -0.984831 0.173518
0.1591 -0.15445 0.0873 0.962136 -0.268429 0.0473367
0.2631 0.14635 0.246 0.4867 -0.86014 0.152588
-0.4603 -0.04005 0.0341 -1 0 0
-0.207 -0.13595 0.3441 -1 0 0
0.4038 0.25555 0.1765 0 1 0
-0.0567 0.25555 -0.172 0 1 0
0.0026 -0.09145 0.3724 0.861488 0.0683194 0.50316
-0.1348 0.25555 0.41456 0 1 0
0.0964 0.12215 -0.2607 0.000644528 -0.984717 -0.17416
0.1679 -0.12155 0.1215 0.936379 -0.345722 0.0605894
-0.0831 -0.09515 0.48824 0 0.144027 0.989574
0.282 0.01495 0.0575 0.570056 -0.809113 0.142731
-0.2767 -0.14055 0.1754 -0.634847 0.110699 0.764667
0.1287 -0.24528 0.0634 -0.000863501 -0.891816 -0.452398
0.2017 -0.06145 0.0909 0.825166 -0.556426 0.0974245
0.2286 0.25555 -0.2737 0 1 0
-0.4603 -0.04295 -0.0053 -1 0 0
-0.207 0.13675 0.2969 -0.99971 0.00104908 0.0240397
-0.203 -0.252361 0.0233 0 -0.984831 0.173515
-0.2391 0.07025 0.1946 -0.831031 0.0378 0.55494
0.0977 0.25555 0.0978 0 1 0
0.0612 0.02365 -0.04 0.0091117 -0.459969 -0.887888
-0.2765 -0.22317 0.1888 -0.45696 -0.604287 0.652705
-0.096 0.25555 -0.1816 0 1 0
0.2558 0.10535 0.1613 0.00101117 0.173083 0.984907
-0.41033 -0.15942 0.1344 0.000175073 0.150074 0.988675
0.0369 -0.21168 0.254 -2.0317e-05 -0.984838 0.173477
0.3208 0.04775 0.1116 0.445807 -0.881452 0.15588
-0.0008 -0.252361 0.0233 0 -0.984831 0.173515
-0.37673 0.01785 -0.0373 -0.0877558 -0.209984 -0.973759
-0.3071 -0.14665 -0.0119 0.000455403 -0.136193 -0.990682
0.1738 0.25555 -0.3363 0 1 0
-0.0627 0.25555 0.1141 0 1 0
0.4603 0.22235 -0.1969 1 0 0
0.1743 0.13325 -0.0633 0.420297 -0.681585 -0.598993
-0.1226 0.21975 -0.1795 -0.706591 -0.00971951 -0.707555
-0.0011 0.21805 0.43413 0.922393 0.00599198 0.386205
0.3475 0.25555 0.045 0 1 0
0.0682 0.08465 -0.0971 0.00042104 -0.875755 -0.482755
-0.0683 0.25555 0.3759 0 1 0
-0.2767 0.02565 0.1564 -0.633822 0.0646711 0.77077
-0.0011 0.25555 0.43384 0.626333 0.713842 0.313268
0.0879 -0.11505 0.2002 0.000694033 0.173797 0.984781
-0.2767 -0.09915 0.1697 -0.634048 0.0998175 0.766825
0.2602 0.01915 0.1765 0.446497 -0.417206 0.791568
0.1478 0.17625 -0.4214 -0.46773 -0.0219332 -0.883599
-0.2295 -0.01035 0.2174 -0.882173 0.0458767 0.468686
0.3494 0.18785 0.2755 0.274701 -0.947146 0.165692
0.4043 0.20245 0.2913 0.145383 -0.974303 0.172038
0.4055 0.25555 -0.4792 0 1 0
0.2801 0.25555 0.1964 0 1 0
0.2313 0.13325 0.2852 0.565989 -0.812232 0.141193
-0.3247 0.21325 0.1183 -0.382922 0.0130959 0.923688
0.4603 0.17695 0.0908 1 0 0
0.3014 0.19515 -0.0925 0.321731 -0.93219 0.165861
-0.42325 0.12405 -0.038 -0.0773955 -0.0439736 -0.99603
0.3865 0.05425 0.0106 0.168577 -0.800124 -0.575659
0.2538 0.25555 -0.0489 0 1 0
0.4603 0.25555 -0.1805 0.5547 0.83205 0
-0.4603 -0.15931 0.1344 -0.708274 0.103375 0.698327
0.2221 0.15125 -0.1374 0.486453 -0.860314 0.152391
0.0026 -0.08335 0.43843 0.995186 0.0135032 0.0970682
-0.3367 0.25555 -0.0558 -0.187409 0.706529 -0.682418
0.3886 0.21925 -0.0785 0.0987705 -0.810645 -0.577147
0.2139 0.25555 -0.246 0 1 0
-0.2091 0.25555 -0.0457 0 1 0
-0.045 -0.1683 0.5 0.0920014 -0.577879 0.81092
0.0767 0.25555 0.1572 0 1 0
-0.2845 0.00935 -0.0339 0.00728079 -0.338813 -0.940826
-0.4603 -0.07895 0.018 -1 0 0
-0.3078 0.17125 0.1273 -0.470727 0.0271905 0.88186
-0.0675 -0.19575 0.3444 1.44498e-05 -0.984795 0.173719
0.2315 0.14505 -0.2018 0.469533 -0.869503 0.153305
0.2916 0.07765 0.0064 -0.000787185 -0.173349 -0.98486
-0.02 -0.19512 0.3479 8.00616e-05 -0.984791 0.173741
0.2992 0.15135 -0.0666 -0.00035906 -0.1733 -0.984869
-0.3566 -0.12955 -0.0142 -0.00155675 -0.131043 -0.991375
0.1092 0.25555 -0.2494 0 1 0
0.0896 -0.05045 0.2256 0.913924 -0.399707 0.070552
-0.0115 0.01375 0.46104 0.702753 0.0700403 0.707977
0.002 0.25555 0.2437 0 1 0
-0.3247 -0.1865 0.1533 -0.382468 0.146457 0.912288
0.0564 0.25555 0.3203 0 1 0
-0.1593 -0.13175 0.493835 -0.0993474 0.158074 0.982417
-0.045 -0.13175 0.493835 0.0981621 0.158145 0.982524
0.2169 0.14205 -0.1723 0.498711 -0.853491 0.15113
0.1107 -0.20286 0.2157 -0.000733537 0.172056 0.985087
-0.0409 -0.19035 0.375 0.000229644 -0.984796 0.173717
-0.019 -0.21788 0.2189 0.000176724 -0.984803 0.173674
-0.2294 -0.18246 -0.0067 -0.00169637 -0.147556 -0.989052
-0.0799 -0.07625 -0.0208 -0.000812922 -0.112166 -0.993689
0.0861 0.25555 0.2584 0 1 0
0.1553 -0.1657 0.1093 0.974125 -0.222388 0.0403039
-0.3055 -0.20074 -0.0039 0.00022079 -0.154705 -0.987961
-0.3412 -0.2445 0.0679 0.000166263 -0.984828 0.173531
0.0825 -0.04545 0.3534 0.799996 -0.224394 0.556465
-0.2269 0.25555 -0.0366 0 1 0
0.4227 0.25555 -0.2181 0 1 0
-0.0547 -0.11065 -0.0166 -0.00163154 -0.125417 -0.992103
-0.4603 0.25555 0.0013 -0.707107 0.707107 0
0.4278 0.16325 -0.4204 0.0674902 -0.982223 0.175164
0.2714 0.01765 0.1169 0.601133 -0.786902 0.139367
-0.4603 0.12805 0.0882 -1 0 0
0.3287 0.25555 -0.0302 0 1 0
0.0858 0.25555 -0.0865 0 1 0
-0.1711 0.25555 0.1923 0 1 0
0.0091 -0.20019 -0.004 -0.000938326 -0.153895 -0.988087
-0.1403 0.08895 0.4686 0 0.0676815 0.997707
-0.3321 0.25555 0.074 0 1 0
0.4603 0.23675 -0.2181 1 0 0
-0.2215 -0.06935 0.2409 -0.924008 0.0459188 0.379607
0.3858 0.18995 0.2384 0.184445 -0.967887 0.170809
0.0887 0.22735 -0.3869 -0.556766 -0.00628712 -0.830646
0.1105 0.04695 0.3402 0.135988 0.0801544 0.987463
0.3883 0.21615 -0.0963 0.146708 -0.974541 0.16955
0.3315 0.16665 0.1873 0.317529 -0.933819 0.164794
-0.0298 -0.21159 0.2545 -0.000460222 -0.984798 0.173705
-0.0186 0.25555 0.3296 0 1 0
-0.2047 -0.21942 0.2101 -9.10775e-05 -0.984802 0.173683
-0.2062 0.21975 -0.1127 -0.533246 -0.0108549 -0.84589
0.4603 0.21785 0.142 1 0 0
0.2579 0.15205 -0.4303 -0.00149289 -0.984604 -0.174794
-0.42272 0.11825 0.1069 -0.000219803 0.0485066 0.998823
0.1033 0.20015 -0.3961 -0.535694 -0.015322 -0.844273
-0.1111 -0.25555 0.0052 2.24968e-05 -0.818532 -0.574461
0.4415 0.25555 -0.4812 0 1 0
-0.2503 -0.03405 0.1886 -0.772781 0.0673921 0.631085
-0.207 -0.14595 0.40697 -1 0 0
-0.0107 0.25555 -0.0562 0 1 0
-0.1016 -0.18739 0.3918 9.33976e-05 -0.984784 0.173785
0.3099 0.25555 -0.0678 0 1 0
-0.3585 -0.23727 0.002 -6.24523e-05 -0.167318 -0.985903
0.423 0.16395 -0.4977 -0.0390068 -0.652659 -0.756647
0.2417 0.25555 0.2193 0 1 0
-0.207 0.25555 0.3749 -0.707107 0.707107 0
-0.43524 0.13345 0.1062 -0.00175731 0.0432322 0.999064
-0.0235 0.10535 -0.1656 -0.000734996 -0.984575 -0.174964
0.1202 0.22825 -0.4068 -0.509946 -0.0065275 -0.860181
-0.3078 -0.14355 0.1548 -0.470949 0.126245 0.873081
0.4227 0.25555 -0.1429 0 1 0
-0.2628 0.21385 0.1597 -0.707701 0.0107292 0.706431
0.1698 0.25555 -0.0046 0 1 0
0.2667 0.19495 -0.4708 -0.288529 -0.0153963 -0.957347
0.3289 0.25555 -0.3019 0 1 0
-0.0672 -0.09335 -0.0188 -0.00150234 -0.121319 -0.992612
0.1427 0.12965 -0.3034 -0.000781891 -0.984858 -0.173363
0.3834 0.14395 -0.0249 0.189076 -0.967007 0.170726
0.441 0.17375 -0.365 0.0396277 -0.984019 0.173597
-0.2917 0.10855 0.1395 -0.555936 0.0428357 0.830121
0.1937 0.25555 0.044 0 1 0
-0.207 -0.16821 0.3902 -1 0 0
0.322 0.25555 -0.376 0 1 0
0.1681 -0.11075 0.1795 0.933885 -0.351828 0.063847
0.3315 0.16355 0.1694 0.317512 -0.933822 0.16481
0.0639 -0.07545 -0.0209 0.000409817 -0.112529 -0.993648
0.0424 -0.19985 -0.0041 0.00144074 -0.154315 -0.988021
-0.0011 0.03095 0.44408 0.922165 0.0353522 0.385177
0.2858 0.15065 -0.4224 -0.00133972 -0.984879 -0.17324
-0.0648 -0.21878 -0.001 -0.00161424 -0.161676 -0.986843
0.1473 -0.21797 0.2183 0.572009 -0.478779 0.666016
-0.0849 0.25555 0.0492 0 1 0
0.4045 0.20555 0.3092 0.0985917 -0.633163 0.767714
-0.3078 0.15015 0.128 -0.470852 0.0334175 0.881579
-0.4603 0.25555 0.1035 -0.666667 0.333333 0.666667
-0.1022 0.14445 0.46545 0 0.0456274 0.998959
-0.2628 0.04745 0.1672 -0.707688 0.0537316 0.704479
-0.0877 0.25555 0.0601 0 1 0
-0.1376 0.10275 -0.1509 -0.00170751 -0.984219 -0.176947
-0.0539 0.25555 0.2344 0 1 0
0.1364 0.25555 0.1031 0 1 0
-0.1403 -0.11345 0.490967 0 0.151111 0.988517
0.3207 0.05445 0.1503 0.452465 -0.878372 0.15407
0.1543 0.21715 0.3265 0.117082 0.0135957 0.993029
-0.0723 -0.11075 -0.0166 -0.000453484 -0.123778 -0.99231
-0.1013 0.25555 0.40031 0 1 0
-0.4603 -0.00295 0.0556 -1 0 0
-0.056 -0.252361 0.0233 0 -0.984831 0.173515
-0.1479 -0.25555 0.0052 4.50234e-05 -0.81857 -0.574406
0.1339 0.25555 -0.1096 0 1 0
-0.4603 -0.05855 0.0366 -1 0 0
-0.1868 0.25555 0.3749 0 1 0
-0.0742 0.16885 -0.2332 -0.76081 -0.0187007 -0.648705
-0.1931 0.10655 0.4534 -0.707677 0.0425039 0.705256
0.1916 0.11635 -0.2279 0.282219 -0.959225 -0.0155143
-0.4603 -0.251995 0.0253 -0.832012 -0.546314 0.0964204
-0.2767 -0.05765 0.1646 -0.634353 0.0881235 0.768004
0.2913 0.25555 0.0262 0 1 0
0.3105 0.16285 -0.2937 0.308546 -0.936982 0.163901
0.2449 0.14235 -0.2565 0.445992 -0.881049 0.157617
-0.0269 0.21845 0.45961 0.380245 0.0138843 0.924782
-0.1593 -0.04005 0.48088 -0.0995818 0.121165 0.987625
0.2513 0.08065 0.1657 0.00132658 0.174081 0.98473
0.132 -0.19888 0.0552 0.000578501 -0.173225 -0.984882
-0.4603 0.23685 -0.0197 -1 0 0
0.1509 0.01055 0.1781 0.000626585 0.175051 0.984559
-0.3837 -0.21897 -0.001 0.00122672 -0.161226 -0.986917
-0.3078 -0.10185 0.1491 -0.469601 0.11498 0.87536
0.4227 0.25555 0.1202 0 1 0
0.0976 -0.03385 0.2226 0.894642 -0.439915 0.0780446
0.2219 0.25555 -0.3408 0 1 0
0.146 0.11145 -0.0595 0.358031 -0.562952 -0.744916
0.1397 0.25555 0.21 0 1 0
-0.1403 -0.02175 0.4787 0 0.113418 0.993547
-0.2365 0.25555 0.0802 0 1 0
0.275 0.25555 -0.3998 0 1 0
-0.2339 -0.2313 0.1427 -0.000362582 -0.984798 0.173702
0.0621 0.25555 0.2284 0 1 0
-0.42456 0.25555 -0.0409 -0.0598409 0.597698 -0.799485
-0.07 0.25555 0.3355 0 1 0
0.3663 0.25555 -0.0678 0 1 0
-0.1145 0.25555 0.0372 0 1 0
0.3454 0.04485 0.0322 0.366949 -0.915979 0.162269
-0.37897 -0.08355 0.125 -0.0971227 0.121907 0.987778
-0.1465 -0.23751 0.1075 1.75213e-05 -0.984793 0.17373
0.3663 0.25555 0.045 0 1 0
0.4025 0.14015 -0.0646 0.0934304 -0.813638 -0.573815
0.2832 0.02595 0.1154 0.560099 -0.815968 0.143129
0.0201 -0.16947 0.3812 0.172706 0.162739 0.971436
0.2028 0.19295 0.3217 0.0986553 0.0246419 0.994817
0.2679 0.18555 -0.0726 0.282203 -0.761516 -0.583485
-0.207 0.10325 0.3997 -1 0 0
0.4227 0.25555 0.0638 0 1 0
-0.44776 -0.10735 0.1271 0.00194229 0.129086 0.991632
0.2191 -0.02485 0.1643 0.770291 -0.627939 0.111107
0.4603 0.19055 -0.3681 1 0 0
0.2796 0.25555 0.1562 0 1 0
-0.4603 0.21725 0.024 -1 0 0
-0.2372 0.23765 -0.0949 -0.468739 -0.00585525 -0.883317
0.176 0.12555 -0.2798 -0.000914361 -0.985161 -0.17163
0.2578 0.14045 -0.3642 0.000348478 -0.984754 -0.173954
0.1059 0.07215 -0.0641 0.727677 -0.675109 0.121301
-0.1206 -0.21981 0.2079 -7.34303e-06 -0.984803 0.173677
0.2224 0.25555 -0.2143 0 1 0
-0.0858 0.18505 -0.22 -0.761274 -0.0146816 -0.648265
-0.2917 -0.03795 0.1512 -0.555069 0.0877062 0.827167
0.3663 0.25555 0.1014 0 1 0
-0.0008 -0.249172 0.0414 0.000219053 -0.984805 0.173662
-0.40746 0.05735 -0.0358 -0.110536 -0.0668971 -0.991618
0.2921 0.11165 -0.0401 0.410443 -0.898149 0.157685
0.3265 0.15165 -0.4277 0.00281757 -0.98474 -0.174007
-0.2841 0.12425 -0.0704 -0.369171 -0.0400134 -0.9285
0.346 0.08065 0.0059 0.0022122 -0.172905 -0.984936
0.3831 0.25555 0.2323 0 1 0
-0.0115 0.25555 0.2503 0 1 0
0.4229 0.19505 0.2375 0.0921792 -0.98059 0.173049
0.0553 0.15745 0.3418 0.155134 0.0389703 0.987125
-0.44704 -0.17823 0.1373 0.00187606 0.154027 0.988065
0.039 0.13755 -0.3481 -0.416299 -0.664324 -0.62078
-0.1489 0.23765 -0.1553 -0.654395 -0.00465496 -0.756138
0.1347 -0.18339 0.0525 -0.000522412 -0.174245 -0.984702
0.062 -0.14155 0.2232 0.983345 -0.179 0.0314917
-0.1096 0.20195 -0.1929 -0.735835 -0.0114309 -0.677064
0.4409 0.18045 -0.3269 0.0389273 -0.984007 0.173822
0.1026 0.25555 -0.1554 0 1 0
0.3663 0.25555 -0.3685 0 1 0
-0.3353 0.14665 -0.0542 -0.269199 -0.0357187 -0.962422
0.217 0.25555 -0.1472 0 1 0
-0.3078 0.00295 0.1375 -0.4721 0.0794613 0.877957
-0.213 -0.21447 0.2382 -0.000194073 -0.9848 0.173691
-0.2734 -0.23574 0.1176 0.000134274 -0.984815 0.173609
0.1989 0.06265 0.1688 -0.000620387 0.173697 0.984799
0.247 0.13385 0.2299 0.526649 -0.837124 0.147863
0.2101 -0.03965 0.147 0.799349 -0.59181 0.103932
0.4407 0.14715 -0.0462 0.047781 -0.98355 0.174205
-0.0376 0.25555 0.332 0 1 0
0.2161 0.11615 0.2514 0.601978 -0.786359 0.138789
