0.4078 0.21365 -0.4977 -0.077365 -0.00978112 -0.996955
0.1735 -0.10115 0.1578 0.916962 -0.392502 0.0715714
-0.40535 -0.01225 -0.028 -0.00404178 -0.18861 -0.982044
-0.4603 -0.03915 0.0591 -1 0 0
0.3203 0.25555 -0.3309 0 1 0
-0.42272 -0.07615 0.1232 -0.000709817 0.118004 0.993013
0.364 0.11325 0.1599 -0.00170588 0.17458 0.984642
0.3246 0.23185 -0.486 -0.203179 -0.0063392 -0.979121
0.1312 0.11815 -0.2381 0.000444996 -0.984869 -0.173301
0.0799 -0.17292 0.0507 -0.00102575 -0.174158 -0.984717
0.3437 0.25555 0.272 0 1 0
0.033 0.12425 -0.2728 0.00138793 -0.984826 -0.17354
0.2288 0.13345 -0.0634 -0.00123292 -0.175029 -0.984563
0.3186 0.20375 -0.0758 0.199042 -0.790859 -0.578727
0.0588 0.25555 -0.0484 0 1 0
-0.207 0.17815 0.3559 -1 0 0
0.4171 0.08395 0.1451 0.137134 -0.975445 0.172342
0.1319 0.17505 -0.4127 -0.491624 -0.0218587 -0.870533
0.4039 0.25555 -0.2933 0 1 0
-0.2034 0.21805 0.43376 -0.924113 0.00542694 0.382081
-0.0952 -0.2005 -0.004 0.000208145 -0.156667 -0.987652
0.3851 0.25555 -0.049 0 1 0
0.0731 0.02395 0.3476 0.147679 0.0877767 0.985132
-0.0392 0.25555 -0.0172 0 1 0
0.1947 0.25555 0.1403 0 1 0
0.1104 -0.22125 0.1997 -6.91378e-05 -0.9848 0.173691
-0.1111 -0.252361 0.0233 0 -0.984831 0.173515
-0.2503 0.02785 0.1827 -0.773527 0.0524808 0.631587
-0.44777 0.07545 0.1093 -0.00299759 0.0633108 0.997989
-0.1302 -0.20054 -0.004 0.000208067 -0.156715 -0.987644
0.2283 0.25555 -0.3821 0 1 0
0.2198 0.25555 0.0385 0 1 0
-0.207 -0.01285 0.3892 -1 0 0
0.1938 -0.05975 0.1705 0.851794 -0.515933 0.0908907
-0.3412 -0.2445 0.0679 0.000166263 -0.984828 0.173531
-0.207 -0.11935 0.3212 -0.999711 0.00339616 0.0238135
-0.3078 -0.08085 0.1464 -0.471134 0.106632 0.875592
-0.0263 0.22325 -0.2893 -0.728872 -0.00676787 -0.684616
0.0705 -0.08985 0.3061 0.961431 -0.270881 0.0476836
-0.1263 0.09175 -0.1111 0.000610767 -0.918513 -0.395391
-0.2488 0.07585 -0.0836 -0.243535 -0.469658 -0.848595
-0.3004 0.25555 0.1094 0 1 0
-0.0743 -0.05925 -0.0226 0 -0.105913 -0.994375
0.1463 0.25555 -0.2384 0 1 0
-0.1476 0.25555 0.0432 0 1 0
-0.4603 -0.11415 0.0441 -1 0 0
0.2746 0.25555 0.0457 0 1 0
0.0919 -0.22805 0.0604 -0.000475511 -0.174035 -0.984739
0.2215 0.25555 -0.4558 -0.250493 0.706657 -0.661732
-0.0245 -0.00645 -0.0292 0.000755599 -0.20973 -0.977759
-0.4603 0.05045 -0.0136 -1 0 0
0.2864 0.25555 -0.3158 0 1 0
0.1485 0.05265 0.2626 0.769295 -0.629052 0.111707
0.2014 0.10165 0.2355 0.638077 -0.758279 0.133678
-0.1508 -0.14625 -0.012 0.000434118 -0.138467 -0.990367
0.1944 0.25555 -0.4245 0 1 0
-0.43943 0.25555 0.1035 0 0.707107 0.707107
0.1669 0.25555 0.2663 0 1 0
0.0359 -0.25555 0.0052 0.000262125 -0.818094 -0.575085
-0.2766 0.25555 0.1468 -0.456651 0.708243 0.538388
-0.165 -0.21327 0.2449 0.000183194 -0.984808 0.173644
-0.3492 -0.24226 0.0806 -0.000166588 -0.984802 0.17368
0.1623 0.16445 -0.4285 -0.447103 -0.0236691 -0.894169
0.0835 0.25555 -0.3608 0 1 0
-0.0102 -0.23255 0.1356 0.000253029 -0.984871 0.173289
0.1063 -0.00495 0.2911 0.873792 -0.478856 0.0847602
-0.4603 0.14555 0.0692 -1 0 0
0.0705 -0.09615 0.2704 0.961452 -0.270839 0.0475007
0.0026 0.21685 0.349 0.861443 0.00789295 0.507794
0.1311 0.14205 -0.3734 -0.00042765 -0.984749 -0.173978
0.0976 -0.02435 0.2762 0.895011 -0.439248 0.0775668
-0.4603 -0.18247 0.0996 -1 0 0
0.3748 0.07175 0.1273 0.273271 -0.947473 0.166187
0.108 -0.08665 0.0354 0.0026112 -0.17377 -0.984783
-0.2914 -0.22511 0.1779 -0.402091 -0.596964 0.694232
0.2103 0.25555 -0.2811 0 1 0
0.3473 0.05925 0.1096 0.361973 -0.918103 0.16144
-0.2917 -0.14215 0.1643 -0.556341 0.11862 0.822444
0.037 -0.19595 0.3432 0.000288577 -0.984869 0.173302
-0.0627 0.25555 0.1141 0 1 0
-0.41986 0.25555 -0.0032 0 1 0
0.0348 0.25555 0.1944 0 1 0
0.2306 0.21745 0.3186 0.0901396 0.0146916 0.995821
-0.4603 0.21915 0.0856 -1 0 0
0.171 0.18605 0.3252 0.112052 0.0265889 0.993347
-0.0015 0.12675 -0.2868 -0.000230227 -0.984747 -0.173995
-0.0134 0.25555 -0.0844 0 1 0
0.2226 0.15505 0.321 0.0917665 0.0379426 0.995057
-0.122 0.25555 -0.1551 0 1 0
-0.2767 0.06735 0.1532 -0.633337 0.0536677 0.772013
0.0026 0.10285 0.3977 1 0 0
0.4603 0.25555 -0.1617 0.8 0.6 0
-0.42772 -0.21684 -0.0014 -0.00361201 -0.159796 -0.987143
0.4317 0.07875 0.1061 0.0922247 -0.980652 0.172675
0.4039 0.25555 -0.0302 0 1 0
0.4039 0.25555 -0.3497 0 1 0
-0.0626 0.23845 -0.248 -0.761546 -0.00445448 -0.648096
0.4603 0.22385 0.2146 1 0 0
0.2963 0.14735 -0.3532 0.341807 -0.925156 0.165089
0.1587 -0.10945 0.0395 -0.000437635 -0.174741 -0.984614
-0.44777 -0.07095 0.1226 0.000163101 0.117142 0.993115
0.0834 -0.10015 0.0182 0.927673 -0.367858 0.0640502
-0.0926 -0.23706 0.1101 -0.00015419 -0.984765 0.173893
0.0768 -0.19097 0.0538 0.000324225 -0.172298 -0.985045
0.1057 -0.11985 0.201 0.00147313 0.174915 0.984582
0.385 0.25555 0.1577 0 1 0
-0.0831 0.10745 0.46741 0 0.0601601 0.998189
-0.0723 -0.11075 -0.0166 -0.000453484 -0.123778 -0.99231
-0.0808 0.03045 -0.0436 -0.00138947 -0.475607 -0.879657
-0.065 0.25555 0.0598 0 1 0
-0.1551 -0.16424 -0.0094 0.000343103 -0.142749 -0.989759
0.4227 0.25555 0.0074 0 1 0
-0.2628 0.13065 0.1622 -0.707557 0.032161 0.705924
-0.4603 -0.04005 0.0341 -1 0 0
0.3099 0.25555 -0.0114 0 1 0
0.4603 0.10845 0.1608 0.705618 0.123092 0.697819
-0.0398 0.11505 -0.2202 -0.000771978 -0.984773 -0.173841
0.3411 0.25555 0.2132 0 1 0
0.1006 0.13485 0.336 0.137947 0.0461536 0.989364
-0.0005 -0.22438 0.182 0.00013529 -0.984855 0.173382
-0.0904 -0.18225 -0.0068 0.000301094 -0.149512 -0.98876
0.176 0.12555 -0.2798 -0.000914361 -0.985161 -0.17163
-0.1696 0.06615 -0.0719 -0.00241019 -0.734532 -0.678569
-0.4603 -0.02185 0.0318 -1 0 0
0.0582 -0.19659 0.0147 0.991479 -0.128213 0.0230494
0.3287 0.25555 -0.0302 0 1 0
-0.3423 0.04385 0.1197 -0.289858 0.0723416 0.954332
0.015 0.10485 -0.1629 0.00078517 -0.984694 -0.174289
-0.2034 0.19925 0.4341 -0.924102 0.00832282 0.382054
-0.083 0.11045 -0.1945 -0.00163799 -0.985022 -0.17242
-0.3442 0.03385 -0.0456 -0.129636 -0.269441 -0.954251
-0.0299 0.25555 0.0448 0 1 0
0.3099 0.25555 -0.1805 0 1 0
0.4176 0.07375 0.087 0.132181 -0.976137 0.17229
-0.4603 -0.08115 -0.0009 -1 0 0
-0.2805 -0.22757 0.1639 0.000112102 -0.984827 0.173539
-0.38843 0.14065 -0.0427 -0.145829 -0.0382343 -0.988571
-0.0974 0.14795 -0.2053 -0.75695 -0.0241618 -0.653026
0.302 0.25555 -0.4435 0 1 0
-0.0269 0.01475 0.47121 0.380954 0.0910571 0.920099
-0.44777 0.11215 0.1072 0.000493715 0.0516026 0.998668
-0.38565 -0.04305 -0.0243 -0.000207081 -0.103443 -0.994635
0.0986 -0.06685 0.0132 0.890513 -0.448027 0.0791086
0.1541 -0.05125 0.1889 0.000731615 0.173241 0.984879
0.0488 0.25555 0.2669 0 1 0
-0.1818 -0.12855 -0.0144 -0.000831117 -0.130593 -0.991436
0.0713 0.18405 -0.3742 -0.582263 -0.0177509 -0.812807
0.4603 0.21845 -0.4437 1 0 0
-0.0346 -0.17192 0.47952 -0.000135639 -0.984864 0.173328
-0.0115 -0.07865 0.47197 0.70223 0.0971121 0.705296
0.0551 -0.23521 0.1206 -9.3168e-05 -0.984833 0.173504
0.1599 0.25555 0.2072 0 1 0
-0.1103 0.25555 -0.1926 -0.587296 0.600071 -0.543137
0.0056 -0.21861 -0.0011 0.000662299 -0.160654 -0.987011
0.2313 0.12065 0.2138 0.564406 -0.812937 0.143456
-0.1354 0.14405 -0.1653 -0.682633 -0.0281396 -0.73022
0.2281 0.25555 -0.4385 0 1 0
-0.207 -0.03865 0.3311 -1 0 0
0.2001 0.20475 -0.4468 -0.390515 -0.0119083 -0.92052
0.1737 0.07865 -0.0537 -0.00068047 -0.173318 -0.984866
-0.2641 -0.18251 -0.0067 -0.000680486 -0.14875 -0.988875
-0.38677 -0.06055 -0.0225 0.000430013 -0.107877 -0.994164
-0.207 0.25555 0.41525 -0.550134 0.833338 0.0538578
0.3886 0.21925 -0.0785 0.0987705 -0.810645 -0.577147
0.302 0.15435 -0.4432 -5.32925e-07 -0.984493 -0.175422
-0.40325 0.25555 -0.0247 0 1 0
-0.2934 -0.23747 0.1078 -0.000173749 -0.984772 0.173851
-0.0125 -0.04235 -0.0244 0 -0.103903 -0.994587
0.0879 -0.11505 0.2002 0.000694033 0.173797 0.984781
-0.1107 0.25555 -0.114 0 1 0
-0.1916 0.25555 -0.0555 0 1 0
0.1865 -0.07205 0.1726 0.873376 -0.479731 0.0840943
-0.2215 0.23515 0.2213 -0.923794 0.00181414 0.382886
0.3356 0.20235 -0.1119 0.257272 -0.951639 0.167913
0.4603 0.19615 -0.3321 1 0 0
0.0735 -0.21797 0.2183 0.000113405 -0.723505 0.690319
0.3281 0.17285 -0.2672 0.266528 -0.949325 0.166566
0.2908 0.25555 -0.4048 0 1 0
-0.207 -0.1941 0.3537 -0.707121 -0.696348 0.122796
0.1738 0.25555 -0.3363 0 1 0
0.0684 0.05045 0.3461 0.151045 0.0767861 0.98554
0.4603 0.25555 -0.1993 0.8 0.6 0
0.2072 0.25555 0.0907 0 1 0
-0.36988 0.20115 -0.0477 -0.188886 -0.0190486 -0.981814
-0.0161 -0.22795 0.1617 -0.000235874 -0.984755 0.173944
-0.0626 0.18745 -0.2473 -0.761667 -0.0146195 -0.647804
-0.203 -0.05945 -0.0226 0.000196207 -0.10843 -0.994104
0.2762 0.06935 0.0079 -0.000899267 -0.174001 -0.984745
-0.1022 0.01515 0.47478 0 0.0989668 0.995091
-0.3405 -0.20082 -0.0039 0.000623023 -0.155242 -0.987876
0.2677 0.15195 -0.2623 0.396443 -0.904023 0.159924
0.4603 0.09595 0.0831 1 0 0
-0.145 0.25555 0.263 0 1 0
-0.0996 0.25555 -0.0692 0 1 0
0.1735 -0.11145 0.0997 0.915912 -0.395205 0.0701239
0.2981 0.14785 -0.4067 -0.000677274 -0.98513 -0.171812
-0.2272 0.25555 -0.0797 0 1 0
0.126 0.00755 0.1786 0.581162 -0.273922 0.766301
0.4227 0.25555 -0.1617 0 1 0
-0.1593 0.14445 0.46545 -0.0997147 0.0453865 0.99398
-0.1012 0.25555 -0.041 0 1 0
0.4603 0.09255 0.0637 1 0 0
0.0762 -0.12235 0.0033 0.946117 -0.318595 0.057966
-0.0342 -0.2144 0.2386 -0.00017555 -0.984748 0.173988
0.2237 0.25555 -0.3986 0 1 0
0.3851 0.25555 -0.2369 0 1 0
0.4231 0.20765 0.3088 0.0725821 -0.755414 0.651216
0.2243 0.25555 -0.1976 0 1 0
0.4603 0.25555 -0.3497 0.707107 0.707107 0
-0.1796 0.25555 0.1353 0 1 0
0.0418 0.02205 0.3527 0.162886 0.0917142 0.982373
0.2205 0.24295 -0.4554 -0.358691 -0.00351833 -0.93345
0.1992 0.25555 -0.3107 0 1 0
0.0565 0.25555 -0.2485 0 1 0
0.2631 0.25555 -0.2793 0 1 0
0.3663 0.25555 0.0826 0 1 0
-0.2628 0.02675 0.1689 -0.707064 0.0593941 0.704651
0.1609 0.07925 0.3314 0.559367 -0.39633 0.728032
-0.1372 0.25555 0.42998 0 1 0
0.0932 -0.21078 0.0573 0.000370713 -0.173357 -0.984859
0.1937 -0.07345 0.093 0.850836 -0.517415 0.091435
0.1404 0.10535 -0.1653 0.000165337 -0.984598 -0.174834
-0.1418 -0.23719 0.002 9.19566e-05 -0.166599 -0.986025
0.4603 0.17415 -0.3651 0.713902 -0.689541 0.121972
0.1688 0.25555 -0.1008 0 1 0
-0.1636 0.25555 -0.0488 0 1 0
-0.0722 -0.23049 0.1473 4.32335e-05 -0.984795 0.173723
0.4409 0.19725 -0.2317 0.0356745 -0.984187 0.173502
-0.207 -0.1871 0.3934 -0.83205 -0.546273 0.0963202
0.0935 0.25555 -0.0468 0 1 0
-0.3423 -0.12465 0.1377 -0.289277 0.130924 0.94825
0.2586 0.25555 0.1777 0 1 0
-0.037 -0.22486 0.1792 0.000124792 -0.984839 0.173471
0.2928 0.01855 0.0368 0.535326 -0.831772 0.146908
0.223 0.25555 -0.2349 0 1 0
0.126 0.01065 0.1964 0.825477 -0.555802 0.0983433
-0.2152 -0.08725 0.261 -0.956508 0.0377016 0.289258
-0.2388 0.06565 -0.0713 -0.00585304 -0.721946 -0.691924
0.2317 0.13385 -0.266 0.468608 -0.870103 0.152732
0.1738 0.06735 0.1864 0.707088 -0.696361 0.122913
0.2256 0.07405 -0.0334 0.572111 -0.807738 0.142298
0.0153 0.25555 0.2896 0 1 0
0.035 0.25555 -0.0721 0 1 0
0.157 0.25555 -0.188 0 1 0
0.2953 0.10625 0.1611 -0.00121974 0.172752 0.984965
0.4603 0.23675 0.1202 1 0 0
0.1473 -0.21797 0.2183 0.572009 -0.478779 0.666016
-0.0725 0.11265 -0.2068 0.00281626 -0.98473 -0.174065
0.0632 0.25555 0.0938 0 1 0
-0.44776 -0.10735 0.1271 0.00194229 0.129086 0.991632
0.1841 0.25555 -0.205 0 1 0
0.1274 -0.02215 -0.0092 0.81933 -0.564374 0.100902
0.3823 0.18465 -0.2694 0.159376 -0.972091 0.172157
-0.1382 0.25555 -0.1161 0 1 0
-0.0391 -0.17712 0.45001 2.74891e-05 -0.98479 0.173746
0.3663 0.25555 0.0262 0 1 0
0.2679 0.17935 -0.1079 0.392361 -0.905931 0.15919
0.2219 0.25555 -0.3408 0 1 0
-0.1633 0.18255 -0.1425 -0.624174 -0.0181988 -0.781073
0.2741 0.10995 0.0008 0.329245 -0.73711 -0.590141
-0.1477 -0.19737 0.3352 -0.000120369 -0.984799 0.173697
0.186 0.25555 -0.3031 0 1 0
0.2511 0.25555 -0.3535 0 1 0
0.4603 0.20085 -0.4446 1 0 0
-0.1494 -0.18945 0.3801 0.000154846 -0.984797 0.173707
-0.3078 -0.16442 0.1579 -0.470664 0.133908 0.872092
0.2457 0.13775 -0.3491 0.000131201 -0.984856 -0.173373
-0.1403 -0.04005 0.48088 0 0.121694 0.992568
-0.42272 0.09875 0.1079 -0.004305 0.0545327 0.998503
0.1924 0.23635 0.322 0.104917 0.00789439 0.99445
-0.0115 -0.13395 0.48021 0.70226 0.113031 0.70289
0.2718 0.25555 -0.3317 0 1 0
0.0324 0.25555 0.2874 0 1 0
-0.2152 -0.10735 0.2636 -0.956489 0.039602 0.289069
0.1256 0.25555 0.1507 0 1 0
-0.1275 0.25555 0.1626 0 1 0
0.2083 0.14315 -0.1369 0.523327 -0.839203 0.147876
-0.2917 -0.16296 0.1674 -0.556092 0.12586 0.821536
0.0007 -0.20538 0.2897 -0.000229801 -0.984811 0.173628
-0.2816 -0.09375 -0.0187 0.000218658 -0.11758 -0.993063
0.337 0.25555 -0.3794 0 1 0
0.0555 -0.18382 0.3043 0.998968 -0.0447202 0.00788404
0.1755 -0.11735 0.0409 0.641492 -0.414772 -0.645331
0.2853 0.05925 0.1694 0.00067487 0.173287 0.984871
-0.2391 0.07025 0.1946 -0.831031 0.0378 0.55494
-0.0786 0.25555 0.0352 0 1 0
0.0553 0.08795 0.3454 0.156836 0.0661513 0.985407
-0.41019 -0.01905 0.117 -0.000208505 0.0974884 0.995237
-0.0011 -0.245983 0.0595 0.000287612 -0.98477 0.173863
-0.1465 -0.23751 0.1075 1.75213e-05 -0.984793 0.17373
0.0824 -0.07385 0.1929 0.657463 -0.132758 0.741699
0.0544 -0.23101 0.1444 0.000237687 -0.984745 0.174006
0.1769 0.13815 -0.3512 -1.98102e-05 -0.984964 -0.172757
-0.0428 -0.23139 0.1422 -0.000141092 -0.98477 0.173861
0.4059 0.16395 -0.4051 0.113707 -0.978447 0.17237
0.247 0.13075 0.212 0.526512 -0.837227 0.147769
0.1057 0.25555 0.2548 0 1 0
0.4415 0.25555 0.1953 0 1 0
0.1659 -0.05855 0.0305 0.0014129 -0.171675 -0.985153
-0.0857 -0.177 0.45073 7.56996e-05 -0.98482 0.173576
0.1917 0.13665 -0.3428 -0.000785417 -0.984956 -0.172803
0.268 0.17395 -0.1387 0.395703 -0.904044 0.161626
0.446 0.07625 0.0866 0.045372 -0.983619 0.174456
-0.1977 -0.20791 0.2754 0.000170657 -0.984805 0.173663
0.1738 0.08935 0.3113 0.711599 -0.691881 0.122178
0.0143 0.25555 0.2695 0 1 0
0.4603 0.18315 -0.4256 1 0 0
-0.42272 0.15715 0.1052 0.00157054 0.0353435 0.999374
0.3617 0.25555 0.2322 0 1 0
-0.3593 0.25555 0.0074 0 1 0
-0.0837 -0.17114 0.48389 0.000160742 -0.984789 0.173753
0.4603 0.23915 -0.1606 1 0 0
0.1308 0.25555 0.1694 0 1 0
0.4458 0.08995 0.164 0.0364047 -0.572592 0.819032
0.0828 -0.10455 0.0013 0.930031 -0.361804 0.0643408
0.3439 0.04085 0.013 0.265849 -0.769797 -0.58029
0.4603 0.23675 0.0638 1 0 0
-0.0777 -0.20046 -0.004 0.000298016 -0.156602 -0.987662
0.1278 0.25555 -0.2456 0 1 0
0.3289 0.25555 -0.3019 0 1 0
0.405 0.15575 -0.4513 0.0599155 -0.998203 0.00114272
-0.207 0.23635 0.375 -1 0 0
0.0217 0.13935 0.3481 0.169137 0.0466593 0.984487
0.1326 0.12655 -0.2855 9.03482e-05 -0.985017 -0.172459
-0.41019 0.06205 0.1102 -0.0020459 0.0695534 0.997576
0.2186 0.13725 -0.3462 0.00042084 -0.984985 -0.172639
0.2095 0.12205 -0.2603 0.261252 -0.965161 -0.0145864
0.1681 -0.11435 0.1601 0.934372 -0.350565 0.063666
0.4043 0.20245 0.2913 0.145383 -0.974303 0.172038
0.4409 0.18715 -0.2889 0.0395213 -0.983945 0.17404
0.4039 0.25555 -0.1241 0 1 0
0.4216 0.18605 -0.2886 0.0797595 -0.981816 0.172268
0.198 0.25555 -0.2733 0 1 0
0.0369 -0.20539 0.2897 -0.000272049 -0.984831 0.173518
0.3629 0.23905 0.31 0.0353688 0.00533594 0.99936
0.0383 -0.14535 -0.0121 0.000348263 -0.136149 -0.990688
0.037 -0.19909 0.3253 0.000381946 -0.984748 0.173988
0.2149 0.00145 0.1796 0.00129793 0.173998 0.984745
0.4603 0.23675 -0.3497 1 0 0
-0.0248 0.25555 -0.2635 0 1 0
0.4216 0.14575 -0.0461 0.0949895 -0.980188 0.173808
0.4039 0.25555 -0.3685 0 1 0
0.4603 0.21945 -0.216 1 0 0
0.091 -0.22793 0.1618 4.9768e-05 -0.98481 0.173637
0.1255 0.25555 -0.2852 0 1 0
0.4418 0.13575 -0.0038 -0.00107115 -0.1733 -0.984869
-0.2767 -0.01595 0.1602 -0.63431 0.075677 0.769366
0.0026 -0.16789 0.3841 0.862204 0.0838816 0.499568
-0.2628 -0.01475 0.1727 -0.707415 0.0696244 0.703361
-0.3423 -0.10365 0.1349 -0.290545 0.1235 0.948858
-0.2034 -0.17341 0.47104 -0.627985 -0.649093 0.429317
-0.4603 0.05155 0.0258 -1 0 0
0.0048 -0.14575 -0.012 -0.00107201 -0.13609 -0.990696
0.0568 -0.15285 0.3724 0.854862 0.00403439 0.518839
0.3115 0.18975 -0.1423 0.303222 -0.938378 0.165843
0.3139 0.16045 0.1884 0.360693 -0.918413 0.162537
0.1734 -0.10835 0.1191 0.919742 -0.386743 0.0671087
0.3114 0.25555 -0.4832 -0.183043 0.552933 -0.812872
-0.1931 0.10655 0.4534 -0.707677 0.0425039 0.705256
0.1927 0.14615 -0.397 -0.00207131 -0.984467 -0.175556
0.3663 0.25555 -0.0866 0 1 0
0.423 0.21655 -0.1161 0.0763304 -0.98178 0.174017
0.4603 0.23925 0.2143 1 0 0
-0.4603 0.08875 0.0026 -1 0 0
-0.2391 0.21435 0.1885 -0.831242 0.00802834 0.555853
-0.2917 0.10855 0.1395 -0.555936 0.0428357 0.830121
0.0676 0.14145 -0.3703 -0.386808 -0.661394 -0.642602
-0.02 -0.19512 0.3479 8.00616e-05 -0.984791 0.173741
-0.1931 0.01375 0.46081 -0.707911 0.0693988 0.702884
0.0026 0.02385 0.3593 0.765716 0.058052 0.640554
-0.1931 0.03225 0.45906 -0.707828 0.0640536 0.703475
-0.2083 0.03735 -0.0477 0.00960357 -0.53945 -0.841963
-0.0184 -0.18754 0.3909 0.000105054 -0.984838 0.173477
0.4603 0.20025 -0.4614 1 0 0
-0.0927 -0.24278 0.0776 0 -0.984726 0.174113
-0.2628 0.17225 0.1606 -0.708201 0.0214321 0.705685
0.1969 -0.07875 0.0341 0.593457 -0.503998 -0.627531
0.4459 0.07975 0.1059 0.0451284 -0.983568 0.174807
0.1665 0.12255 -0.2627 4.49037e-05 -0.984632 -0.174643
0.2375 0.07085 0.1674 0.00142866 0.172447 0.985018
0.2137 0.25555 -0.033 0 1 0
-0.42406 -0.08035 -0.0203 0.000487423 -0.113629 -0.993523
0.4603 0.18125 0.02 1 0 0
-0.2034 0.12435 0.43695 -0.924153 0.0200999 0.381492
-0.2106 0.19525 0.2577 -0.980815 0.00432342 0.194891
-0.2391 0.13195 0.1911 -0.831294 0.0250925 0.555266
-0.2295 0.03045 0.2137 -0.881848 0.040264 0.469812
0.3367 0.14295 0.1547 0.000641842 0.173842 0.984773
-0.4603 -0.04295 -0.0053 -1 0 0
0.4227 0.25555 -0.1241 0 1 0
0.3432 0.18285 -0.2333 0.241167 -0.95607 0.166637
-0.4603 -0.01915 0.0804 -1 0 0
-0.026 0.25555 -0.2897 -0.436623 0.799152 -0.413178
0.0396 0.15225 -0.3491 -0.630149 -0.0245134 -0.776087
-0.4603 0.10635 -0.017 -1 0 0
0.1371 0.25555 -0.1709 0 1 0
0.3315 0.18555 0.2943 0.324476 -0.93138 0.165066
0.0658 -0.10775 0.3092 0.973882 -0.223598 0.0394734
0.0376 -0.23696 0.002 0.000757798 -0.16716 -0.98593
-0.1127 -0.20051 -0.004 0.000164175 -0.1567 -0.987646
-0.0831 0.05205 0.47142 0 0.0837088 0.99649
-0.4603 0.01525 0.054 -1 0 0
-0.0817 0.01025 -0.0343 -0.000541795 -0.354134 -0.935195
0.1017 0.13265 -0.3203 0.000283026 -0.984958 -0.172791
-0.4603 0.21745 0.046 -1 0 0
-0.0204 -0.17449 0.46489 6.50252e-05 -0.98479 0.173746
0.1831 0.25555 -0.0852 0 1 0
-0.207 0.21685 0.355 -1 0 0
0.1219 0.06265 0.3375 0.131058 0.0729389 0.988688
-0.44191 0.08665 -0.035 -0.0367955 -0.055634 -0.997773
0.2651 0.18285 -0.4701 -0.292437 -0.0201188 -0.956073
-0.3078 0.12905 0.1289 -0.470911 0.0397592 0.881284
0.2552 0.25555 -0.1302 0 1 0
0.3425 0.12575 0.1577 0.00119587 0.172093 0.98508
0.4003 0.17395 -0.0705 0.000430708 -0.17363 -0.984811
0.2912 0.25555 -0.0302 0 1 0
-0.1429 -0.11085 -0.0166 0.000231216 -0.122207 -0.992505
0.1295 0.25555 -0.3907 0 1 0
0.1608 0.05395 0.1888 0.738228 -0.664393 0.116628
0.3494 0.25555 -0.3137 0 1 0
-0.42607 0.06935 -0.0349 -0.0728658 -0.0622252 -0.995399
0.2899 0.11975 -0.061 -0.000515734 -0.17069 -0.985325
0.4603 0.06635 0.0284 0.566774 -0.811474 0.142402
-0.0143 0.16045 -0.3005 -0.710881 -0.0221444 -0.702964
0.1487 -0.2129 0.0777 0.99549 -0.0932737 0.0173378
0.1937 0.00565 0.0192 -0.000340657 -0.17296 -0.984929
-0.0269 0.08875 0.46503 0.380212 0.0631198 0.922743
-0.0893 0.07535 -0.083 -0.0040626 -0.790895 -0.611938
0.1063 -0.02375 0.1841 0.615006 -0.220067 0.757191
-0.207 -0.02715 0.43133 -0.995247 0.0109181 0.096764
-0.0831 0.25555 0.44517 0 1 0
0.0823 0.12425 -0.2727 0.000441819 -0.984646 -0.174564
0.1396 -0.00875 -0.0287 0.62345 -0.623512 -0.471745
-0.44368 -0.15666 -0.0105 0.000534235 -0.139484 -0.990224
-0.4603 0.05665 0.1106 -0.706063 0.0518227 0.706251
0.3338 0.16445 -0.3238 0.25394 -0.953016 0.165152
0.1937 0.12855 -0.0625 0.000129778 -0.172601 -0.984992
0.2805 0.01045 0.0383 0.575316 -0.805418 0.142522
0.0418 0.08395 0.3478 0.160326 0.0671213 0.984779
-0.4603 0.20055 0.0676 -1 0 0
0.1555 -0.14765 0.2059 0.686583 -0.0414347 0.72587
0.1174 0.25555 -0.3413 0 1 0
0.2161 0.10675 0.1979 0.602155 -0.786254 0.138617
-0.4603 0.23745 0.1035 -0.707167 0.00532625 0.707027
0.1081 -0.02565 -0.0261 -0.00138854 -0.135852 -0.990728
-0.1695 -0.19023 0.3757 -3.98133e-05 -0.984847 0.173428
0.0588 0.12855 -0.2968 5.29539e-05 -0.985079 -0.172102
0.0997 0.25555 -0.0689 0 1 0
0.092 -0.21797 0.2183 -0.000200905 -0.574782 0.818306
-0.2106 0.03485 0.2662 -0.980758 0.0161235 0.194559
0.0656 0.25555 -0.3248 0 1 0
0.3826 0.18815 -0.25 0.157943 -0.972413 0.171657
0.2834 0.18075 -0.1367 0.366049 -0.916471 0.161525
0.1199 0.21465 -0.4064 -0.510372 -0.01132 -0.85988
-0.42852 -0.17137 -0.0084 0.00128917 -0.14379 -0.989607
-0.0742 0.18625 -0.2336 -0.760931 -0.0137418 -0.648688
0.2059 0.25555 0.2622 0 1 0
-0.2034 -0.04365 0.45164 -0.924204 0.0459265 0.379128
0.1553 -0.15525 0.1674 0.974361 -0.221541 0.039247
0.0833 0.04145 0.3446 0.145216 0.0815757 0.986031
0.0568 -0.178 0.2297 0.99562 -0.0920778 0.0162108
-0.1813 0.25555 -0.0379 0 1 0
-0.2372 0.23765 -0.0949 -0.468739 -0.00585525 -0.883317
-0.259 -0.16442 -0.0094 0.0003535 -0.142894 -0.989738
0.197 0.17945 -0.445 -0.394761 -0.0211344 -0.918541
0.2014 -0.05835 0.1103 0.83021 -0.548931 0.0970871
0.3475 0.25555 -0.1241 0 1 0
0.3735 0.10765 0.0012 -0.000719121 -0.173481 -0.984837
-0.1212 0.21845 0.4632 0 0.014863 0.99989
0.1926 0.13285 0.3248 0.103026 0.0462158 0.993604
-0.239 -0.21598 0.2296 -0.59258 -0.631582 0.499953
0.3609 0.06745 0.128 0.318473 -0.933623 0.164081
-0.1536 -0.21887 -0.001 0.000136011 -0.161604 -0.986856
-0.2937 -0.16448 -0.0094 0.000395406 -0.143017 -0.98972
-0.207 0.23585 0.3144 -1 0 0
0.1924 0.25555 0.3219 0.0722356 0.70894 0.701559
-0.1504 -0.18572 0.40123 0.000188333 -0.984788 0.17376
0.1738 0.07365 0.2221 0.707024 -0.696388 0.123134
0.4603 0.18755 -0.2889 0.714353 -0.689294 0.120719
0.4227 0.25555 -0.4989 -0.0382409 0.708688 -0.704485
-0.4603 -0.05855 0.0366 -1 0 0
0.2407 0.09095 0.0041 0.387508 -0.705454 -0.593441
0.3099 0.25555 -0.1241 0 1 0
0.4415 0.25555 -0.0866 0 1 0
-0.0115 0.05085 0.45767 0.702672 0.0595612 0.709016
-0.4603 0.18315 0.1044 -0.70782 0.0195549 0.706122
0.3108 0.17065 -0.07 0.000591618 -0.17566 -0.984451
0.04 0.25555 0.2124 0 1 0
0.295 0.25555 -0.3533 0 1 0
-0.3078 0.04495 0.134 -0.471531 0.0669614 0.879304
-0.0641 0.25555 0.46292 0 0.800929 0.59876
0.1696 0.04095 -0.0471 -0.00163096 -0.172837 -0.984949
0.1427 0.25555 -0.0488 0 1 0
0.4415 0.25555 -0.049 0 1 0
0.3337 0.04685 0.0718 0.405268 -0.900343 0.158559
0.0026 -0.17658 0.45306 0.703976 -0.690012 0.16823
-0.36791 -0.1831 -0.0066 0.000461927 -0.149369 -0.988781
0.1867 0.12935 -0.1351 0.560811 -0.815172 0.144867
0.1235 -0.12455 0.2018 -0.000997095 0.173004 0.984921
0.1214 0.25555 -0.1543 0 1 0
-0.1295 -0.245983 0.0595 0 -0.984766 0.173885
0.3443 0.19045 -0.192 0.240017 -0.955982 0.16879
-0.2017 -0.246211 0.0582 0.000264556 -0.984733 0.174071
-0.38904 0.25555 -0.0449 -0.111068 0.70521 -0.700245
0.1864 0.25555 0.2641 0 1 0
0.2846 0.18915 -0.0915 0.354133 -0.92053 0.164968
-0.08 0.04295 -0.0515 6.16441e-05 -0.56929 -0.822137
-0.1745 0.25555 -0.0659 0 1 0
-0.3415 0.25555 0.0219 0 1 0
-0.0041 -0.18197 -0.0068 0.000889119 -0.149241 -0.9888
0.3287 0.25555 0.0074 0 1 0
-0.0974 0.25555 -0.2071 -0.454501 0.799754 -0.392201
0.1937 -0.06335 0.1511 0.852109 -0.515463 0.0906023
0.199 0.03765 0.1733 -0.000516003 0.17335 0.98486
-0.0397 -0.22113 0.2004 2.5478e-05 -0.984778 0.173818
0.3858 0.17745 0.167 0.182747 -0.968045 0.171732
0.3274 0.12915 -0.0223 0.327962 -0.930378 0.163825
0.0253 0.25555 -0.0836 0 1 0
-0.39766 0.19175 0.1042 -0.0240946 0.0238734 0.999425
0.039 0.12285 -0.2646 0.00233023 -0.984641 -0.174578
-0.212 -0.18243 -0.0068 -0.0016693 -0.147497 -0.989061
-0.2106 0.15515 0.2589 -0.980831 0.0072331 0.194725
0.3677 0.16085 -0.4799 -8.94352e-05 -0.984549 -0.175107
-0.4603 0.19915 0.0473 -1 0 0
0.0578 0.21185 -0.3647 -0.603421 -0.00955277 -0.797366
-0.0853 0.25555 -0.025 0 1 0
-0.2386 0.09955 -0.0902 -0.467061 -0.0476891 -0.882938
0.4279 0.12515 0.1578 0.00114593 0.173818 0.984777
0.1604 0.06725 -0.0517 0.000104734 -0.171998 -0.985097
0.3098 0.25555 0.0798 0 1 0
0.2561 0.16385 -0.0688 0.00163307 -0.173386 -0.984853
-0.0115 0.06035 -0.0659 0.0142701 -0.69361 -0.720209
-0.1092 0.25555 -0.1416 0 1 0
0.3207 0.05445 0.1503 0.452465 -0.878372 0.15407
0.1644 0.25555 -0.1753 0 1 0
0.4603 0.22305 -0.1777 1 0 0
-0.174 -0.21708 0.2234 -0.000177614 -0.98479 0.17375
0.0658 -0.09835 0.3627 0.740904 -0.0645236 0.668504
0.3851 0.25555 -0.0866 0 1 0
0.4058 0.25555 -0.4615 0 1 0
-0.1198 0.08285 -0.0941 -2.3218e-05 -0.858762 -0.512374
0.1115 0.25555 -0.3163 0 1 0
-0.4603 -0.09385 0.0658 -1 0 0
-0.0376 -0.252361 0.0233 0 -0.984831 0.173515
0.4603 0.10515 0.1424 1 0 0
-0.2917 0.08755 0.1407 -0.554813 0.0514904 0.83038
0.3083 0.25555 -0.3566 0 1 0
0.1347 -0.18339 0.0525 -0.000522412 -0.174245 -0.984702
0.4129 0.15625 -0.0674 0.00148002 -0.171494 -0.985184
0.3419 0.25555 0.2329 0 1 0
0.0896 -0.04105 0.2791 0.913852 -0.399849 0.0706768
-0.207 0.02725 0.40549 -1 0 0
0.268 0.25555 -0.4335 0 1 0
0.1352 0.25555 0.3285 0.0868824 0.708937 0.6999
0.0824 -0.05185 0.3178 0.932653 -0.355332 0.0624347
0.4043 0.18355 0.1843 0.137227 -0.975568 0.17157
0.0731 -0.23867 0.1009 -5.39739e-05 -0.984779 0.173809
-0.0636 -0.21095 0.2581 3.24918e-05 -0.984881 0.173231
-0.207 0.13765 0.317 -1 0 0
0.0568 -0.16543 0.301 0.995615 -0.0921143 0.0163073
0.0228 0.02225 0.3559 0.168916 0.090608 0.981457
-0.0186 0.25555 0.3296 0 1 0
0.3602 0.23225 -0.4924 -0.149728 -0.0071232 -0.988702
0.4415 0.25555 -0.406 0 1 0
-0.207 0.25555 0.3143 -0.83205 0.5547 0
-0.207 0.06525 0.4023 -1 0 0
0.0026 -0.08335 0.43843 0.995186 0.0135032 0.0970682
0.2967 0.17545 0.3145 0.303048 -0.574234 0.760537
-0.0742 0.13425 -0.232 -0.761096 -0.0243433 -0.648182
0.2516 0.13855 -0.2964 0.427753 -0.890454 0.155302
0.4039 0.25555 -0.4248 0 1 0
0.0243 0.25555 0.0032 0 1 0
-0.0237 0.25555 0.0716 0 1 0
0.1807 0.25555 -0.2427 0 1 0
-0.1022 0.18145 0.46403 0 0.0305257 0.999534
0.0771 0.11525 -0.2215 0.000358677 -0.98479 -0.173747
0.3036 0.25555 0.2546 0 1 0
-0.4603 0.01485 0.0286 -1 0 0
0.4603 0.15445 -0.0071 0.819339 -0.469263 -0.329356
-0.4603 -0.12175 -0.0153 -0.707109 -0.0909049 -0.701237
-0.328 0.04165 -0.0505 -0.119609 -0.348273 -0.929731
0.4603 0.24085 -0.083 1 0 0
0.4415 0.25555 -0.4812 0 1 0
0.1294 -0.13225 0.0435 0.000190995 -0.170993 -0.985272
-0.0009 -0.19535 0.3466 -0.000310304 -0.984793 0.173734
0.1086 -0.23506 0.1214 0.000112258 -0.984837 0.173481
0.0742 0.09395 0.342 0.148539 0.0652462 0.986752
-0.3258 -0.23593 0.1165 0.000133463 -0.984832 0.173511
0.2955 0.16585 -0.2469 0.338036 -0.926942 0.162821
-0.1998 0.25555 0.1852 0 1 0
0.1474 0.25555 0.2686 0 1 0
0.4603 0.12115 0.0179 1 0 0
0.049 -0.07655 0.3625 0.158563 0.126356 0.97923
0.3749 0.06155 0.0692 0.273215 -0.94726 0.167488
-0.1665 0.25555 0.395 0 1 0
-0.2106 -0.08495 0.2789 -0.980735 0.0250977 0.193724
-0.0961 -0.20127 0.313 -0.000182595 -0.984811 0.173632
-0.1523 -0.07635 -0.0208 -0.0018194 -0.113758 -0.993507
0.4039 0.25555 -0.2369 0 1 0
0.4038 0.25555 0.1765 0 1 0
0.4216 0.20955 -0.1554 0.0804161 -0.981806 0.172016
0.0675 0.25555 -0.0603 0 1 0
0.0355 0.08975 -0.1069 0.00155485 -0.896987 -0.442055
-0.40517 -0.252285 0.0237 -0.000216057 -0.984776 0.173829
-0.253 0.18415 -0.0861 -0.434953 -0.020992 -0.900208
0.1749 0.11055 -0.1947 0.301586 -0.953245 -0.0192143
-0.4603 -0.12345 0.1293 -0.705392 0.0949604 0.702428
-0.045 0.16295 0.46468 0.0977561 0.0380573 0.994482
-0.0701 0.07305 -0.08 0.00120945 -0.77868 -0.627421
-0.0025 0.02095 -0.0387 0.00461728 -0.428203 -0.903671
-0.0422 0.09035 -0.1082 -0.000787197 -0.90667 -0.421839
-0.3486 0.12705 -0.05 -0.24079 -0.0413568 -0.969696
-0.0742 0.23815 -0.2343 -0.761561 -0.00436941 -0.648079
0.3421 0.18305 -0.0721 -0.00174737 -0.175787 -0.984427
0.192 0.25555 -0.2304 0 1 0
-0.1022 -0.11345 0.490967 0 0.151111 0.988517
0.4216 0.18945 -0.2696 0.0800474 -0.98157 0.17353
-0.045 0.12595 0.46637 0.0978028 0.0525665 0.993817
0.059 -0.14085 0.3335 0.990298 -0.136829 0.0242328
-0.2214 -0.252361 0.0233 0 -0.984831 0.173515
-0.40431 -0.04345 -0.0243 -0.000620182 -0.103458 -0.994634
0.1501 -0.19345 0.1142 0.990749 -0.133505 0.0243347
-0.2391 -0.15505 0.2194 -0.831132 0.0840618 0.549685
0.0527 0.10925 -0.1877 -0.000367015 -0.984617 -0.174728
0.4603 0.25555 0.2141 0.707107 0.707107 0
0.2193 0.25555 -0.126 0 1 0
0.3014 0.19205 -0.1101 0.327584 -0.930513 0.163814
0.0026 0.17795 0.3721 1 0 0
0.4603 0.20435 -0.1937 0.714459 -0.689188 0.1207
-0.1666 0.25555 0.2906 0 1 0
-0.2183 0.25555 -0.063 0 1 0
-0.1868 0.25555 0.41327 0 1 0
0.1485 0.10995 -0.0798 0.641211 -0.755809 0.132667
-0.3525 0.25555 0.0668 0 1 0
0.1129 0.14685 -0.4007 -0.343267 -0.658632 -0.669606
-0.1593 0.16295 0.46468 -0.0995337 0.03806 0.994306
0.2481 0.03275 0.1741 0.000331969 0.174487 0.984659
0.2723 0.25555 -0.0866 0 1 0
-0.2519 -0.00695 -0.0291 0.000168921 -0.225436 -0.974258
-0.0336 0.25555 -0.1991 0 1 0
0.2829 0.01895 0.0767 0.567739 -0.810668 0.143142
0.4415 0.25555 -0.1429 0 1 0
-0.037 -0.11065 -0.0167 -0.00139415 -0.12535 -0.992112
0.1938 0.25555 -0.2512 0 1 0
-0.0125 0.25555 -0.277 0 1 0
0.0915 -0.24528 0.0634 -0.000832221 -0.690093 -0.72372
0.3618 0.08565 0.0051 -0.0007814 -0.173272 -0.984874
-0.3353 0.14665 -0.0542 -0.269199 -0.0357187 -0.962422
-0.0558 0.25555 0.3202 0 1 0
0.1752 0.25555 -0.1835 0 1 0
0.0553 0.15745 0.3418 0.155134 0.0389703 0.987125
0.0986 -0.04185 -0.0245 -0.000706721 -0.103376 -0.994642
0.2317 -0.00875 0.0217 0.000298723 -0.17365 -0.984807
-0.37897 0.10685 0.1083 -0.0982742 0.0530421 0.993745
0.4409 0.15405 -0.007 0.0391953 -0.817313 -0.574859
-0.42292 0.16155 -0.0395 -0.0782892 -0.0312779 -0.99644
0.0735 -0.2212 0.2 5.2846e-05 -0.984783 0.17379
0.2354 0.16415 -0.1053 0.461344 -0.873809 0.153687
0.0751 0.13465 -0.3318 -2.2121e-05 -0.985014 -0.172472
0.3663 0.25555 -0.0114 0 1 0
0.0123 0.16375 -0.3261 -0.672051 -0.0205088 -0.740221
-0.0641 0.07045 0.46992 0 0.0762123 0.997092
-0.2166 0.04435 -0.0525 0.0134997 -0.586975 -0.809492
-0.0107 0.25555 -0.0562 0 1 0
-0.0245 -0.02565 -0.0261 0.000279761 -0.130663 -0.991427
0.196 0.12385 -0.2023 0.540833 -0.828672 0.144233
0.1891 0.14025 -0.0828 0.55547 -0.818877 0.144544
0.0421 0.03825 0.3512 0.160844 0.0824313 0.983532
0.2191 -0.02485 0.1643 0.770291 -0.627939 0.111107
-0.4603 0.10985 0.0891 -1 0 0
0.4603 0.20065 -0.0309 1 0 0
0.3358 0.20545 -0.0943 0.255214 -0.952586 0.165668
0.1104 -0.21797 0.2183 -6.61691e-05 -0.575132 0.818061
0.2822 0.14455 -0.0653 -0.000924853 -0.173839 -0.984774
-0.1043 -0.18034 0.43178 -0.000163557 -0.984829 0.17353
-0.0641 0.08895 0.4686 0 0.0676815 0.997707
-0.3247 0.23435 0.1181 -0.382631 0.007143 0.923873
-0.1999 0.25555 0.0708 0 1 0
0.2985 0.06695 0.1681 -0.00146932 0.172874 0.984943
0.3367 0.19685 -0.4879 -0.183585 -0.016331 -0.982868
0.2832 0.02255 0.096 0.566829 -0.811333 0.142982
-0.2628 -0.2005 0.1975 -0.696286 0.120009 0.707661
0.1032 0.25555 -0.1322 0 1 0
-0.0294 -0.21871 -0.0011 0.000380082 -0.161045 -0.986947
0.2237 -0.04345 0.0278 0.533109 -0.580791 -0.615205
0.2386 -0.00715 0.1412 0.707395 -0.696471 0.120502
0.1552 0.25555 0.0223 0 1 0
-0.0974 0.20175 -0.2067 -0.755344 -0.0118028 -0.655223
0.2014 0.09845 0.2177 0.638956 -0.757595 0.13336
-0.0858 0.11455 -0.2176 -0.504909 -0.669983 -0.544234
0.4603 0.06975 0.0478 0.714481 -0.689119 0.120957
-0.2152 -0.14735 0.2695 -0.956698 0.0438353 0.287763
0.4314 0.08895 0.1642 0.0706327 -0.570058 0.818562
0.1986 0.19215 -0.446 -0.392793 -0.0173085 -0.919464
-0.2503 0.06915 0.1796 -0.773216 0.0433436 0.632659
-0.1603 0.11905 -0.1427 -0.630039 -0.0370103 -0.775681
-0.39766 -0.06255 0.1216 -0.0237979 0.113775 0.993222
0.2968 0.16055 -0.4783 -0.159419 -0.655439 -0.738232
-0.3194 0.20195 -0.0603 -0.295695 -0.0155375 -0.955156
0.17 0.25555 -0.0321 0 1 0
0.1283 -0.01805 0.0061 0.817373 -0.567459 0.0994613
-0.1403 0.03355 0.47302 0 0.0906921 0.995879
0.3324 0.16195 -0.4863 -0.124759 -0.654115 -0.746035
-0.0641 0.25555 0.44463 0 1 0
-0.4603 0.03045 -0.0309 -0.713958 -0.0551385 -0.698014
0.4415 0.25555 -0.3121 0 1 0
0.4603 0.23755 0.0093 1 0 0
0.3976 0.07535 0.0069 0.00119858 -0.172251 -0.985052
0.301 0.25555 0.1757 0 1 0
-0.0602 0.11125 -0.1985 -2.11813e-05 -0.98465 -0.174542
-0.2391 0.11135 0.1921 -0.831347 0.0291766 0.554988
-0.2503 -0.09575 0.1959 -0.773618 0.081009 0.628453
-0.0519 0.25555 0.3743 0 1 0
0.3189 0.25555 -0.3187 0 1 0
0.3355 0.25555 -0.3471 0 1 0
0.2315 0.14505 -0.2018 0.469533 -0.869503 0.153305
0.0975 -0.07185 -0.0021 0.894074 -0.440872 0.0791458
0.2531 0.11575 -0.0603 0.000246052 -0.171565 -0.985173
-0.3078 0.02395 0.1357 -0.471856 0.0732017 0.878631
0.3533 0.21275 -0.0774 0.152776 -0.802767 -0.576389
-0.1403 -0.13175 0.493835 0 0.158882 0.987298
0.3169 0.15815 -0.4648 -0.00109424 -0.984914 -0.173039
0.2439 0.21495 0.3174 0.083517 0.0157972 0.996381
0.4603 0.20105 -0.4802 1 0 0
0.0652 -0.15992 0.0091 0.974501 -0.220645 0.0407867
-0.1931 -0.00475 0.46272 -0.707835 0.0747434 0.702412
-0.1777 0.16275 0.46097 -0.384561 0.0347326 0.922446
0.3068 0.25555 -0.2185 0 1 0
0.3837 0.25555 0.3092 0.0211045 0.709155 0.704736
0.4025 0.14015 -0.0646 0.0934304 -0.813638 -0.573815
0.4315 0.08555 0.1448 0.0913869 -0.980677 0.172974
-0.1358 -0.21885 -0.001 0.000121762 -0.161583 -0.986859
-0.2979 -0.22941 0.1534 7.98359e-05 -0.984859 0.173359
-0.1749 0.25555 0.0258 0 1 0
0.0754 0.25555 0.3174 0 1 0
0.3675 0.18305 0.2212 0.22824 -0.958792 0.169191
-0.2261 0.25555 0.1483 0 1 0
0.4603 0.18135 -0.4603 1 0 0
-0.1212 -0.02175 0.4787 0 0.113418 0.993547
-0.0831 0.16295 0.46468 0 0.0383497 0.999264
0.1941 -0.05585 0.1897 0.599026 -0.24711 0.761646
-0.40676 -0.20135 -0.0038 0.000540233 -0.152329 -0.98833
0.2931 0.25555 -0.4787 -0.175312 0.706017 -0.686153
0.1748 -0.11555 0.0605 0.912486 -0.403049 0.0701425
-0.1887 -0.1871 0.3934 -0.000131749 -0.984807 0.173651
0.4603 0.22075 -0.3334 1 0 0
0.4409 0.20735 -0.1746 0.0385251 -0.983808 0.175036
0.2291 0.25555 -0.1827 0 1 0
-0.2628 0.03955 -0.0491 -0.00456722 -0.555493 -0.831509
-0.207 0.19615 0.2948 -0.999709 0.00052643 0.0241165
0.1427 0.12965 -0.3034 -0.000781891 -0.984858 -0.173363
-0.0898 0.25555 0.3823 0 1 0
0.1873 0.02545 0.1754 -0.000749279 0.173779 0.984784
0.1798 0.12855 -0.1127 0.571925 -0.806991 0.147197
-0.1593 -0.11345 0.490967 -0.0994204 0.150394 0.983614
0.4227 0.25555 0.1202 0 1 0
-0.1772 -0.20883 0.2702 -5.48355e-05 -0.984816 0.173602
0.3532 0.18565 -0.4906 -0.160619 -0.0182791 -0.986847
0.0719 -0.05865 -0.0227 0.001785 -0.105076 -0.994463
-0.1286 -0.23603 0.1159 -2.6852e-05 -0.984864 0.17333
0.2655 0.08985 0.164 -2.45278e-05 0.175062 0.984557
-0.1931 0.19965 0.44951 -0.708795 0.0157868 0.705238
0.1101 -0.24528 0.0634 0.000657443 -0.819209 -0.573495
0.2538 0.25555 -0.0489 0 1 0
0.1865 -0.03405 0.1859 -0.000184013 0.172672 0.984979
0.3084 0.25555 -0.3199 0 1 0
0.3965 0.15195 -0.0667 -0.000332972 -0.174742 -0.984614
-0.2391 0.00855 0.1995 -0.831502 0.0498138 0.553284
-0.0814 -0.14615 -0.012 0.000301368 -0.135769 -0.990741
-0.43502 -0.16415 0.1351 0.00134133 0.149833 0.98871
0.2954 0.04405 0.1721 0.368578 -0.471606 0.801085
-0.36046 -0.06215 0.1252 -0.195574 0.110162 0.974482
-0.0115 0.25555 0.2503 0 1 0
0.0026 0.17815 0.3499 0.764963 0.0188447 0.643798
-0.1022 0.10745 0.46741 0 0.0601601 0.998189
0.0026 0.02475 0.3814 1 0 0
-0.1291 -0.23791 0.1052 1.50363e-05 -0.984827 0.173538
0.0571 0.07685 -0.0851 0.00616559 -0.80258 -0.596512
0.0835 -0.13215 0.2032 -0.00106483 0.173307 0.984867
0.3545 0.09135 0.1638 -4.72551e-05 0.175248 0.984524
0.4603 0.23725 -0.4999 0.702293 -0.00337884 -0.71188
0.4603 0.21105 -0.1556 0.713168 -0.690277 0.122102
0.3908 0.21085 -0.4961 -0.10497 -0.0135302 -0.994383
-0.098 -0.07625 -0.0208 0.000304429 -0.113337 -0.993557
-0.2025 0.05045 -0.0571 0.00541158 -0.619545 -0.784942
-0.3366 0.21975 -0.0556 -0.257217 -0.012752 -0.96627
0.2631 0.13375 0.1747 0.486347 -0.860259 0.153043
-0.2917 0.23455 0.1357 -0.5558 0.00563531 0.831297
0.3287 0.25555 -0.1054 0 1 0
0.0934 0.25555 0.13 0 1 0
-0.2106 -0.18428 0.2938 -0.977169 0.0355401 0.209468
-0.0011 0.10565 0.4384 0.922258 0.0236763 0.385849
-0.207 0.00435 0.3671 -1 0 0
-0.40595 -0.07905 -0.0204 0.000641904 -0.112485 -0.993653
0.2631 0.14955 0.2639 0.487129 -0.860155 0.151125
-0.207 -0.16493 0.41008 -1 0 0
0.314 0.18245 0.3132 0.271681 -0.587781 0.762039
0.2078 0.25555 0.2816 0 1 0
-0.2628 0.25555 0.1594 -0.508778 0.707892 0.489931
-0.0676 0.25555 0.3232 0 1 0
-0.056 -0.23645 0.1135 -9.13243e-05 -0.984782 0.173795
-0.2015 0.25555 -0.0724 0 1 0
0.4227 0.25555 -0.0866 0 1 0
0.3292 0.20425 0.3119 0.0501925 0.0190714 0.998557
-0.44777 0.03875 0.1119 0.00167456 0.0785941 0.996905
-0.2694 0.23765 -0.0794 -0.401013 -0.0055059 -0.916056
0.3565 0.10325 0.002 -0.000214678 -0.173632 -0.984811
0.2413 0.25555 0.0331 0 1 0
-0.0787 0.25555 0.0601 0 1 0
-0.4603 -0.25555 0.0052 -0.577892 -0.667819 -0.469104
0.4603 0.12455 0.0366 1 0 0
0.2102 -0.03605 0.1663 0.800153 -0.590381 0.105853
-0.37815 0.10625 -0.0429 -0.172809 -0.049848 -0.983693
0.3851 0.25555 -0.2933 0 1 0
0.3882 0.19065 -0.0735 -0.000662085 -0.175674 -0.984448
-0.0269 0.05175 0.46783 0.380848 0.0767991 0.921443
0.2572 0.25555 0.0296 0 1 0
0.2917 0.25555 -0.1488 0 1 0
-0.1239 -0.19692 0.3377 7.57645e-05 -0.984808 0.173647
-0.44156 0.16165 -0.0384 -0.0393249 -0.0326989 -0.998691
0.1902 0.25555 -0.038 0 1 0
-0.37897 0.02215 0.1141 -0.0984183 0.0812664 0.991821
0.2161 0.10995 0.2157 0.601938 -0.786322 0.139168
-0.1593 0.05205 0.47142 -0.0993721 0.0835497 0.991536
0.0369 -0.20854 0.2718 0.000228463 -0.984787 0.173764
0.2404 0.25555 -0.2033 0 1 0
0.0568 -0.16857 0.2832 0.995616 -0.0921276 0.0161953
0.2919 0.17135 -0.2082 0.33746 -0.927232 0.162365
-0.0813 0.09125 -0.1101 -0.000318523 -0.913055 -0.407836
-0.1761 -0.00695 -0.0291 0 -0.216252 -0.976337
0.0026 0.19785 0.3937 1 0 0
0.0142 0.24025 -0.329 -0.668498 -0.0036144 -0.743705
-0.207 0.14125 0.3977 -1 0 0
0.1697 0.25555 -0.4334 -0.306041 0.706089 -0.638574
0.1934 0.15425 -0.4428 -0.261252 -0.6577 -0.706525
0.4415 0.25555 -0.1993 0 1 0
0.219 -0.03535 0.1063 0.776532 -0.62048 0.109556
0.0356 0.09685 -0.1248 0.000744376 -0.950222 -0.311571
-0.1256 -0.18843 0.3858 9.95729e-05 -0.984808 0.173647
-0.39766 0.02205 0.1132 -0.0230599 0.0827927 0.9963
-0.1308 -0.1795 0.43646 -0.000120593 -0.98486 0.173351
0.2731 0.14315 -0.3256 0.390093 -0.906463 0.161715
-0.1145 0.25555 0.0372 0 1 0
0.0682 0.08465 -0.0971 0.00042104 -0.875755 -0.482755
0.37 0.17455 -0.4929 -0.135371 -0.0226854 -0.990535
-0.0369 0.25555 -0.2495 0 1 0
-0.2767 0.04655 0.1547 -0.633575 0.0591461 0.771417
-0.2295 0.05085 0.212 -0.882101 0.0352078 0.469742
-0.2767 -0.03685 0.1623 -0.634631 0.0811152 0.768547
-0.1851 0.25555 0.0476 0 1 0
0.3001 0.18415 -0.4798 -0.241371 -0.0212377 -0.970201
-0.2602 -0.23896 0.0992 6.49844e-05 -0.984785 0.173779
-0.37897 -0.14665 0.1334 -0.0989909 0.142188 0.984877
-0.2244 -0.16436 -0.0094 -0.000741949 -0.141759 -0.989901
-0.4603 -0.17919 -0.0072 -0.708515 -0.104733 -0.697881
-0.44174 0.10535 -0.036 -0.0380963 -0.0508478 -0.99798
0.002 0.25555 0.2437 0 1 0
0.2614 0.20715 0.3162 0.0748465 0.0176708 0.997038
0.1063 -0.01755 0.2198 0.873722 -0.479008 0.0846314
0.4436 0.09915 0.0027 -1.27794e-05 -0.17432 -0.984689
0.0593 0.21715 0.3395 0.154662 0.016057 0.987837
0.3876 0.15455 -0.4446 0.0769654 -0.997034 -0.000148113
0.2127 0.12945 -0.3021 0.000576657 -0.984517 -0.175288
0.3494 0.17525 0.2042 0.272415 -0.947386 0.168076
-0.148 0.25555 0.3958 0 1 0
0.1279 -0.2248 0.1796 -8.7998e-05 -0.984868 0.173308
0.1733 0.23635 0.3241 0.111982 0.00790411 0.993679
0.1704 0.25555 -0.0837 0 1 0
-0.1952 0.25555 -0.0984 0 1 0
-0.2106 0.11505 0.2607 -0.980703 0.0104993 0.19522
-0.2152 -0.04715 0.2561 -0.95656 0.0333364 0.289623
-0.36046 0.21305 0.1075 -0.194412 0.0154067 0.980799
0.1502 -0.17561 0.2109 0.699635 0.0234254 0.714116
0.2349 0.15065 -0.1806 0.461391 -0.873837 0.153389
0.0761 -0.08175 0.2495 0.948195 -0.312895 0.0549782
0.4603 0.25555 -0.2181 0.707107 0.707107 0
0.3151 0.06855 0.0081 -7.88189e-05 -0.1742 -0.98471
-0.2857 0.18215 -0.0717 -0.362331 -0.0229251 -0.931767
-0.1348 0.25555 0.41456 0 1 0
0.2354 0.17045 -0.0699 0.329356 -0.73861 -0.588201
0.2342 0.25555 -0.0087 0 1 0
0.0026 -0.14885 0.381 0.766476 0.10193 0.634133
0.2049 -0.00995 0.1817 0.00125505 0.173612 0.984813
0.3287 0.25555 -0.0866 0 1 0
0.2015 0.11735 0.3247 0.483225 -0.467007 0.740539
0.1112 0.11195 -0.2031 -0.00137146 -0.984717 -0.174159
0.2339 0.25555 -0.2176 0 1 0
-0.43286 -0.19564 0.1401 -0.000721279 0.162314 0.986739
0.4603 0.20855 0.1983 1 0 0
0.3216 0.25555 -0.4306 0 1 0
0.1381 -0.16822 0.0498 -0.00182062 -0.17247 -0.985013
0.3796 0.11735 0.1592 0.000153023 0.173171 0.984892
0.0824 -0.06435 0.2464 0.93262 -0.355414 0.062449
-0.0005 -0.22116 0.2003 -9.78791e-05 -0.984767 0.173881
-0.0393 0.14055 -0.273 -0.749289 -0.0243684 -0.661795
0.2774 0.25555 -0.3808 0 1 0
-0.36046 0.17065 0.1085 -0.195352 0.0300735 0.980272
0.1778 0.06475 -0.0513 0.000469054 -0.170716 -0.98532
-0.1355 0.21975 -0.1671 -0.6756 -0.00996319 -0.737201
0.022 0.02755 -0.042 -0.000589679 -0.487426 -0.873164
-0.0083 0.25555 -0.0246 0 1 0
-0.1931 0.25555 0.4489 -0.545522 0.563199 0.620655
0.0927 0.25555 0.1765 0 1 0
0.0629 0.25555 -0.1837 0 1 0
0.3271 0.22075 0.3117 0.0526499 0.0147027 0.998505
0.4603 0.23675 -0.3309 1 0 0
0.2943 0.02285 0.0561 0.530198 -0.83491 0.147702
0.0848 0.25555 -0.296 0 1 0
-0.4603 0.19825 0.0239 -1 0 0
-0.0858 0.22025 -0.2205 -0.761418 -0.00798945 -0.648213
-0.185 0.25555 -0.0825 0 1 0
-0.1413 0.25555 0.3106 0 1 0
0.1293 0.11045 -0.1945 0.000764515 -0.984797 -0.173708
-0.2802 0.25555 0.0217 0 1 0
0.3473 0.05585 0.0902 0.355007 -0.920556 0.162934
-0.0515 -0.23715 0.002 -0.000788877 -0.167685 -0.98584
0.3333 0.10305 0.1617 0.000354654 0.17448 0.984661
0.3319 0.15995 -0.3463 0.262084 -0.951005 0.164019
0.0026 0.19715 0.3716 1 0 0
0.3529 0.25555 -0.3821 0 1 0
0.147 -0.13835 0.0445 0.000224642 -0.174291 -0.984694
0.0026 -0.10525 0.41913 1 0 0
0.4415 0.25555 -0.2369 0 1 0
-0.1403 0.08895 0.4686 0 0.0676815 0.997707
-0.207 0.23605 0.3346 -1 0 0
-0.0746 0.25555 0.0529 0 1 0
0.4021 0.17725 -0.3275 0.119876 -0.977601 0.172989
-0.2168 -0.12865 -0.0144 -0.00150352 -0.13221 -0.991221
0.1135 -0.04945 0.1886 0.000180967 0.172057 0.985087
-0.3224 -0.246471 0.0567 -0.000183251 -0.984832 0.173512
0.2142 -0.05485 0.0298 0.554626 -0.554722 -0.62022
0.1254 0.25555 0.2518 0 1 0
0.4409 0.21405 -0.1365 0.0350234 -0.984386 0.172506
0.1557 0.08145 -0.0542 0.000983918 -0.172379 -0.98503
0.3564 0.18945 -0.0733 -8.21357e-05 -0.175046 -0.98456
0.4233 0.16055 -0.4782 -0.000848032 -0.984834 -0.173495
-0.233 -0.00695 -0.0291 0 -0.225091 -0.974338
-0.2917 0.25555 0.1357 -0.401996 0.707761 0.580925
0.0551 -0.21482 0.2362 0.699514 -0.70377 0.124048
-0.2957 -0.21897 -0.001 0.000149454 -0.159435 -0.987208
0.0061 0.25555 0.2295 0 1 0
0.3315 0.16985 0.2051 0.317242 -0.933886 0.164971
0.3624 0.18425 -0.2508 0.202246 -0.964292 0.170991
0.2462 0.19215 0.3177 0.0824781 0.0236239 0.996313
0.0217 0.12005 0.349 0.167702 0.0523867 0.984445
0.2911 0.25555 -0.1241 0 1 0
-0.2295 0.25555 0.2044 -0.628841 0.707465 0.32257
0.0284 0.24045 -0.3414 -0.646329 -0.00266977 -0.763055
0.1553 -0.1657 0.1093 0.974125 -0.222388 0.0403039
-0.207 -0.04085 0.311 -0.999709 0.00271156 0.0239568
-0.2123 0.25555 0.1659 0 1 0
0.0353 -0.23143 0.142 -0.000213289 -0.984846 0.173432
-0.42273 -0.13355 0.1307 0.000604391 0.136906 0.990584
-0.2351 0.25555 0.0145 0 1 0
0.2011 0.01345 0.1775 0.00141391 0.174031 0.984739
-0.41019 -0.03935 0.1191 -0.00119756 0.106374 0.994325
-0.207 0.23615 0.3548 -1 0 0
0.1063 0.00455 0.3446 0.589937 -0.200177 0.782243
-0.0269 0.12575 0.46278 0.380305 0.0491323 0.923555
-0.2767 0.19275 0.1475 -0.634743 0.0172196 0.772531
0.2674 0.25555 0.296 0 1 0
-0.3078 -0.18524 0.1612 -0.471005 0.140237 0.870912
0.0158 0.25555 0.2044 0 1 0
0.1694 0.24245 -0.4332 -0.435262 -0.00225766 -0.900301
-0.2215 0.21975 -0.1034 -0.500786 -0.0103731 -0.865509
0.4243 0.22325 -0.0792 0.0471122 -0.816742 -0.575076
-0.0074 -0.12805 -0.0144 0.000761344 -0.13182 -0.991273
0.202 0.13205 -0.1774 0.533178 -0.832761 0.149099
-0.2692 -0.12875 -0.0143 0.000128121 -0.131748 -0.991283
-0.2079 -0.08255 0.2973 -0.995349 0.0123404 0.0955388
0.0244 0.25555 -0.2644 0 1 0
0.058 0.04425 -0.0524 0.00611477 -0.581945 -0.813205
0.0896 -0.05045 0.2256 0.913924 -0.399707 0.070552
-0.1965 0.06915 -0.0753 0.00539063 -0.771619 -0.636063
-0.2178 0.08685 -0.1011 -0.336187 -0.46514 -0.818916
0.4603 0.23645 -0.2965 1 0 0
0.3086 0.25555 -0.3417 0 1 0
-0.0298 -0.21159 0.2545 -0.000460222 -0.984798 0.173705
0.0555 -0.1901 0.2686 0.998968 -0.0447356 0.00788033
0.2356 0.25555 -0.1079 0 1 0
0.4603 0.22105 -0.0538 1 0 0
-0.2503 0.19335 0.1739 -0.772936 0.0147296 0.634313
-0.37848 -0.23056 0.147 -0.0813977 -0.575643 0.81364
-0.4603 0.01895 0.0953 -1 0 0
0.2358 0.06555 0.0086 -0.000259999 -0.173403 -0.984851
0.1628 0.03455 -0.046 -0.00501587 -0.327111 -0.944973
-0.214 0.01115 -0.0346 0 -0.339256 -0.940694
0.219 0.00455 0.0193 0.000490442 -0.173479 -0.984837
0.0006 -0.20851 0.272 -0.000103921 -0.984794 0.173727
0.2714 0.01415 0.0975 0.605023 -0.783985 0.138976
0.1026 0.25555 0.2364 0 1 0
0.1749 0.14285 -0.3783 -0.00043609 -0.984598 -0.174832
-0.39757 -0.23823 0.1034 0.000149542 -0.984846 0.173433
0.3675 0.17365 0.1677 0.229892 -0.958561 0.16826
-0.4603 -0.05355 0.1023 -1 0 0
0.0453 0.25555 0.2315 0 1 0
0.4603 0.14635 0.0519 1 0 0
-0.1424 0.25555 0.3334 0 1 0
0.2068 0.04315 0.0125 0.00122381 -0.174066 -0.984733
-0.1699 -0.1725 0.47621 -2.89302e-05 -0.984826 0.173547
0.0217 -0.09185 0.3691 0.169584 0.133603 0.976418
-0.0389 0.20625 -0.2752 -0.747772 -0.0089389 -0.663895
0.4025 0.14355 -0.0456 0.143078 -0.974647 0.172023
0.2671 0.25555 -0.2502 0 1 0
0.4454 0.06265 0.0091 0.0378009 -0.817849 -0.57419
-0.2417 -0.16439 -0.0094 0.000179347 -0.142841 -0.989746
-0.1247 0.10365 -0.156 -0.00117307 -0.9844 -0.175943
0.369 0.12545 -0.002 0.000334046 -0.174562 -0.984646
0.0321 0.25555 0.2699 0 1 0
-0.177 -0.17913 0.43858 1.54502e-05 -0.984792 0.173738
-0.1624 0.20195 -0.1436 -0.624834 -0.0141231 -0.78063
-0.0829 -0.22282 0.1908 4.20584e-05 -0.98482 0.17358
0.3858 0.17425 0.1491 0.123675 -0.561659 0.818073
0.2911 0.25555 -0.1054 0 1 0
0.2495 0.19435 -0.4653 -0.317183 -0.0179328 -0.948195
0.2287 -0.02765 0.0849 0.739193 -0.663162 0.117516
0.067 0.11225 -0.2045 -0.000244782 -0.984697 -0.174273
0.137 0.05085 0.3364 0.605722 -0.344079 0.717434
-0.0419 0.09695 -0.1252 -0.00144119 -0.953963 -0.299922
-0.0312 -0.04235 -0.0244 0 -0.103903 -0.994587
0.0567 0.25555 0.1863 0 1 0
-0.4603 -0.14095 -0.0127 -0.707252 -0.0971821 -0.70025
0.0184 -0.21481 0.2363 -1.1031e-05 -0.984825 0.173548
0.0962 0.06235 -0.0584 0.746403 -0.655337 0.115828
-0.2079 0.05625 0.283 -0.995344 0.00725227 0.0961118
0.3206 0.04075 0.0729 0.44702 -0.880994 0.154992
-0.43982 -0.2449 0.0655 -0.000465709 -0.984872 0.17328
0.305 0.25555 -0.4264 0 1 0
0.4603 0.21865 0.013 1 0 0
0.2597 0.14535 -0.3921 0.00178161 -0.984852 -0.173388
0.3287 0.25555 0.0638 0 1 0
0.4023 0.19425 -0.2312 0.118937 -0.977802 0.1725
-0.4603 -0.09785 0.0204 -1 0 0
0.4409 0.18045 -0.3269 0.0389273 -0.984007 0.173822
-0.2295 0.09175 0.2093 -0.881983 0.0283019 0.47043
0.1327 -0.07855 0.034 -0.00170903 -0.175453 -0.984486
0.1964 0.13145 -0.3134 -0.000376261 -0.984672 -0.174415
0.1643 0.25555 -0.2313 0 1 0
-0.40514 -0.06115 -0.0224 -0.00105451 -0.108769 -0.994066
0.4216 0.15265 -0.0068 0.0732047 -0.81479 -0.575117
-0.0974 0.18385 -0.2063 -0.755782 -0.0152383 -0.654647
0.1487 -0.21612 0.0583 0.702358 -0.192336 -0.685347
0.2631 0.14005 0.2104 0.486462 -0.860244 0.152761
0.0427 0.12585 -0.2814 0.00198835 -0.984805 -0.173652
0.2105 0.06305 -0.0313 0.613007 -0.777855 0.138435
-0.0269 0.21845 0.45961 0.380245 0.0138843 0.924782
-0.233 0.01115 -0.0346 0.00104491 -0.364457 -0.93122
0.1673 0.02835 -0.003 0.72183 -0.681083 0.122834
0.2832 0.03275 0.1542 0.570556 -0.808868 0.14212
-0.2767 -0.05765 0.1646 -0.634353 0.0881235 0.768004
0.0555 -0.18067 0.3221 0.998968 -0.0447334 0.00790349
-0.4603 -0.15095 0.0489 -1 0 0
0.3475 0.25555 -0.0866 0 1 0
-0.42353 -0.06205 -0.0223 0.000946892 -0.107083 -0.99425
-0.0609 0.09075 -0.109 -0.00211808 -0.908747 -0.417342
