-0.736844 -0.106814 -0.652796 -0.752481 -0.102527 -0.650585
-0.006168 -0.972365 0.201956 0.03501 -0.978407 0.203699
0.183252 0.864272 0.435263 0.182196 0.873873 0.450722
-0.607863 0.141212 0.776484 -0.632754 0.089322 0.769184
-0.1192 0.513064 -0.839066 -0.111061 0.530155 -0.840595
-0.24762 0.718741 0.639635 -0.241889 0.709061 0.662362
0.802052 -0.297624 0.494799 0.829517 -0.274743 0.486229
-0.13971 0.889359 -0.410575 -0.121492 0.890047 -0.439381
0.832701 -0.472254 -0.26102 0.83124 -0.487561 -0.267066
-0.473944 -0.845524 -0.201776 -0.484372 -0.851159 -0.202265
0.755263 -0.412875 0.487739 0.78395 -0.398745 0.475842
-0.679778 -0.42673 -0.591688 -0.667499 -0.419785 -0.615
-0.166494 -0.832428 -0.517491 -0.118035 -0.854645 -0.505618
0.757299 -0.637474 0.093887 0.771387 -0.62796 0.103099
0.183206 0.458097 0.859909 0.19337 0.446458 0.873661
0.69107 0.365147 -0.617022 0.699514 0.390779 -0.598308
-0.991231 0.047771 0.095694 -0.990211 0.087159 0.109024
0.624925 -0.753698 0.173892 0.627523 -0.759771 0.170184
0.574118 -0.441024 0.677188 0.58225 -0.472786 0.661406
0.482161 0.845879 -0.15795 0.494147 0.858906 -0.134534
0.334864 0.602055 0.709002 0.325955 0.606293 0.725371
0.087327 0.38564 -0.914899 0.049414 0.372516 -0.926709
0.853889 0.497978 -0.169003 0.843917 0.509346 -0.168434
0.590085 -0.140791 0.784464 0.624445 -0.140437 0.768339
-0.387023 0.237012 0.891799 -0.36072 0.223243 0.905562
-0.55218 -0.703643 0.422101 -0.51674 -0.736234 0.436966
-0.100769 0.638339 0.752189 -0.123506 0.642112 0.756597
-0.356499 0.801077 -0.466917 -0.355482 0.8134 -0.460449
-0.430023 0.049481 0.896361 -0.429582 0.04515 0.901898
-0.593828 -0.293734 -0.741348 -0.634906 -0.283804 -0.718575
0.831776 -0.316708 -0.450187 0.832165 -0.330156 -0.445531
0.968273 -0.144415 -0.189083 0.97682 -0.140616 -0.161401
-0.243017 0.000438 -0.957036 -0.238434 -0.041667 -0.970264
-0.999087 -0.031905 -0.001808 -0.999107 -0.020705 -0.036843
0.038732 0.974905 0.170983 0.013626 0.982752 0.184426
0.028036 -0.602443 0.790707 0.021073 -0.609154 0.792772
0.463813 -0.830357 -0.321521 0.481136 -0.800041 -0.358389
-0.895315 0.360365 -0.216512 -0.895977 0.378198 -0.232789
0.833958 -0.193434 0.504821 0.855991 -0.221546 0.467115
-0.247584 0.899526 0.339973 -0.26312 0.900474 0.346286
-0.854799 -0.469812 -0.22581 -0.839808 -0.460453 -0.287588
0.422224 -0.697565 -0.575296 0.399343 -0.71615 -0.572411
-0.230051 0.139988 0.953495 -0.185087 0.133791 0.973572
0.569403 -0.73869 0.339955 0.55031 -0.766787 0.330449
-0.241594 0.938233 0.222977 -0.183993 0.93751 0.295334
-0.886872 -0.285971 -0.329138 -0.888762 -0.251912 -0.38294
0.124793 0.935385 -0.299492 0.097616 0.932979 -0.346442
-0.970322 0.104677 0.185519 -0.972937 0.124296 0.194792
-0.542431 -0.67408 -0.489901 -0.562517 -0.663936 -0.492711
-0.130276 0.904436 0.38118 -0.144086 0.915184 0.3764
0.457718 -0.10924 -0.87526 0.475661 -0.108751 -0.87288
-0.104757 0.50313 0.848395 -0.098137 0.497507 0.861891
0.324451 0.428255 -0.841871 0.324182 0.428725 -0.843268
0.589673 0.786532 0.164937 0.613153 0.771568 0.169487
-0.000336 -0.969046 -0.224791 0.020133 -0.983461 -0.179999
0.380591 0.509813 0.75808 0.367369 0.519108 0.77173
0.408193 0.319952 -0.853179 0.455898 0.302626 -0.837003
0.180917 -0.830799 0.514389 0.178991 -0.834252 0.521523
-0.6571 0.608589 -0.420617 -0.666367 0.604427 -0.436604
-0.32191 -0.49004 -0.798812 -0.311779 -0.488711 -0.814835
-0.934903 -0.098751 -0.314371 -0.939593 -0.129091 -0.317018
-0.729036 -0.600642 0.317512 -0.743244 -0.600208 0.295531
0.62814 -0.481194 -0.599095 0.658633 -0.444338 -0.607261
-0.715302 -0.668678 0.175168 -0.726736 -0.655741 0.204593
-0.260989 -0.594908 -0.747286 -0.243389 -0.601664 -0.760764
-0.352744 -0.636533 0.679824 -0.339078 -0.626527 0.701776
-0.38506 0.349834 -0.845965 -0.380786 0.343174 -0.858623
0.272305 -0.739724 -0.606918 0.278487 -0.759812 -0.587478
-0.351005 -0.707172 0.603203 -0.35489 -0.725565 0.589584
0.916542 -0.388508 -0.060387 0.932488 -0.356644 -0.057195
0.264783 0.136259 -0.949789 0.269285 0.093248 -0.958536
-0.836418 -0.286743 -0.436778 -0.859617 -0.258956 -0.440454
0.044069 0.1693 0.974505 0.017031 0.18463 0.982661
-0.749981 -0.522181 -0.395406 -0.767521 -0.496593 -0.405348
-0.170531 0.134833 -0.972244 -0.204855 0.143103 -0.968275
0.316368 0.950948 -0.03144 0.36227 0.928851 -0.07744
0.798784 0.597845 -0.014516 0.796294 0.604655 0.017545
0.67811 -0.161211 0.705746 0.688563 -0.164365 0.706304
0.337251 0.081211 -0.929737 0.371293 0.059628 -0.926599
0.177474 -0.979646 -0.00534 0.135653 -0.990741 0.005582
-0.325638 -0.399067 -0.847793 -0.322732 -0.430261 -0.843042
-0.506099 -0.53519 0.667152 -0.520266 -0.542091 0.659895
0.68412 -0.663462 -0.280676 0.704293 -0.663093 -0.253533
-0.562592 0.225607 -0.787067 -0.579601 0.255602 -0.773777
0.249459 -0.92936 -0.259991 0.214062 -0.942101 -0.258116
0.619927 0.219012 0.738371 0.617398 0.203339 0.759916
-0.027251 0.543523 -0.833864 -0.063343 0.528944 -0.84629
-0.80943 -0.481336 -0.323001 -0.805475 -0.459983 -0.373666
0.477037 0.390426 0.778328 0.490994 0.379442 0.784187
0.189956 0.912287 0.335204 0.18956 0.906783 0.376578
-0.80808 0.136738 0.560237 -0.823942 0.153763 0.545414
-0.630348 -0.378561 -0.670936 -0.627715 -0.355454 -0.692551
-0.468581 0.882306 -0.004226 -0.498209 0.866785 -0.021726
0.382369 0.919299 0.127807 0.404177 0.902227 0.150423
0.013491 -0.803008 -0.583141 0.016598 -0.790448 -0.612304
0.766574 -0.206341 0.601215 0.745101 -0.239645 0.62241
-0.577328 -0.072373 -0.806801 -0.606207 -0.065384 -0.792615
-0.121367 0.023475 -0.984003 -0.136917 0.014801 -0.990472
0.561957 0.738317 0.351067 0.571612 0.743984 0.346047
0.571525 0.224089 -0.780542 0.595936 0.188871 -0.780505
0.204767 0.448449 -0.872494 0.168995 0.452497 -0.875607
0.328706 0.913112 -0.201044 0.379479 0.901859 -0.206512
-0.948475 0.261416 0.128866 -0.948577 0.29262 0.120727
-0.502864 0.811844 0.288082 -0.506373 0.805726 0.307233
0.031458 -0.32167 -0.940254 0.064452 -0.30076 -0.951519
0.940926 0.269382 0.150977 0.952301 0.267755 0.146388
0.345478 -0.921985 0.128959 0.37742 -0.913216 0.153592
-0.462635 -0.785094 0.371566 -0.467276 -0.798884 0.378731
-0.074134 -0.372092 -0.928598 -0.024162 -0.383376 -0.923276
0.010393 0.442995 0.885025 0.015481 0.425598 0.90478
0.146036 0.765804 -0.617908 0.12889 0.785982 -0.604666
0.513708 -0.221946 0.822854 0.502602 -0.24108 0.830224
0.611361 0.594525 0.506702 0.61323 0.598162 0.515898
0.537159 0.63969 0.533615 0.549122 0.630557 0.54851
-0.622154 -0.742524 0.217105 -0.62494 -0.749793 0.217395
-0.688021 -0.667496 0.259151 -0.679196 -0.682856 0.269074
-0.904993 0.14642 -0.389394 -0.902533 0.198402 -0.382193
-0.312143 0.558582 0.756999 -0.328295 0.560786 0.760093
-0.073732 -0.951162 0.26976 -0.033184 -0.955925 0.291728
-0.64557 0.353776 0.670548 -0.629898 0.36775 0.684097
0.155587 0.972916 0.123882 0.104752 0.985126 0.136211
-0.759489 0.605982 0.217435 -0.750306 0.619847 0.22985
0.545826 -0.144765 -0.817764 0.589784 -0.13928 -0.79546
-0.741812 0.580675 0.326047 -0.763837 0.560267 0.320397
0.07438 -0.849918 0.510727 0.043834 -0.87536 0.481481
-0.332023 0.894542 -0.275013 -0.346904 0.894634 -0.28158
0.355204 -0.888011 -0.290594 0.370266 -0.878658 -0.301434
-0.604697 -0.465201 -0.642395 -0.599599 -0.430199 -0.674841
-0.323731 0.940519 0.145043 -0.336876 0.925891 0.171
-0.792885 -0.255692 -0.536952 -0.805684 -0.231542 -0.545217
0.646399 0.676059 0.323057 0.672459 0.674634 0.304415
-0.733052 -0.461844 0.483301 -0.735976 -0.443351 0.511644
-0.406363 -0.773935 0.456931 -0.431133 -0.781045 0.451767
0.156331 -0.968535 0.159666 0.11095 -0.979857 0.166044
0.081009 0.898619 0.402323 0.094973 0.915422 0.39113
0.727615 -0.646969 -0.198336 0.744642 -0.635213 -0.204972
0.862667 -0.265166 0.395264 0.875869 -0.265532 0.402922
0.788698 0.314897 0.511453 0.780689 0.324111 0.5343
-0.340662 0.121538 0.929638 -0.316482 0.052043 0.94717
-0.901397 -0.048137 0.420767 -0.905452 -0.032743 0.423184
-0.20362 -0.958587 -0.083611 -0.200624 -0.974578 -0.09974
-0.860898 0.114104 -0.488498 -0.832127 0.103775 -0.544789
-0.147173 -0.288371 -0.948305 -0.15472 -0.259692 -0.953217
-0.880978 -0.470593 0.023228 -0.89749 -0.437401 0.056498
-0.905556 0.039441 -0.421413 -0.899315 0.033104 -0.436048
-0.005552 0.932592 -0.328643 -0.020927 0.937716 -0.346771
0.595934 -0.647505 -0.476698 0.623615 -0.627642 -0.466015
-0.118708 -0.885005 0.429643 -0.07896 -0.903522 0.421205
0.487437 0.862037 0.134678 0.513034 0.853249 0.093612
0.425691 0.312085 0.838013 0.428204 0.318194 0.84581
-0.426399 -0.351845 -0.827652 -0.406641 -0.366274 -0.836951
0.407825 0.604969 -0.678475 0.409961 0.622222 -0.666912
0.512746 -0.733442 0.428386 0.491128 -0.747805 0.446746
0.282073 0.19726 0.937381 0.274684 0.245064 0.929781
0.761155 -0.045213 -0.624958 0.770691 -0.029509 -0.636525
0.301623 0.337635 -0.892957 0.34021 0.347659 -0.873722
0.181883 0.570371 0.790234 0.238095 0.593464 0.768838
-0.347752 0.945307 0.036154 -0.340608 0.939721 0.030175
-0.562472 0.74977 0.344764 -0.567909 0.725159 0.389388
-0.771022 0.623732 0.08376 -0.776213 0.627686 0.059189
-0.779813 0.618706 -0.021945 -0.772162 0.635426 -9.1e-05
-0.152553 0.841296 -0.501229 -0.16526 0.856567 -0.488858
0.886049 -0.451719 0.017201 0.886115 -0.463127 0.017694
0.803379 0.570678 0.152779 0.804281 0.573847 0.154374
0.756763 0.642667 0.063766 0.742436 0.662766 0.097621
0.075232 0.942558 0.285791 0.062318 0.948407 0.310871
0.209289 0.896045 -0.370132 0.208074 0.910715 -0.356797
0.934985 -0.311127 -0.146162 0.944896 -0.281854 -0.166523
-0.254237 -0.720835 0.638895 -0.239146 -0.715145 0.656793
0.055719 0.696731 -0.707918 0.033565 0.692178 -0.720946
0.78455 -0.156745 -0.584673 0.777438 -0.146993 -0.611542
-0.834278 0.533635 -0.072964 -0.841761 0.537948 -0.045282
-0.390487 -0.895922 0.170682 -0.397059 -0.891373 0.21863
-0.50782 -0.744566 -0.422493 -0.525277 -0.737861 -0.423845
0.44242 0.759682 -0.468107 0.437027 0.765688 -0.471942
0.86956 -0.08814 0.466929 0.893813 -0.114076 0.433687
-0.744501 0.341171 -0.555111 -0.770091 0.316862 -0.553677
-0.902583 -0.064 -0.405791 -0.896583 -0.102835 -0.430771
-0.502193 -0.261238 -0.822164 -0.524151 -0.219224 -0.822925
-0.355112 -0.634008 -0.678664 -0.346577 -0.636779 -0.688765
0.398295 0.871395 -0.268133 0.396763 0.879292 -0.263484
0.418388 -0.434277 -0.789645 0.458102 -0.411377 -0.787979
0.974473 0.055674 0.156815 0.987988 0.047005 0.147208
0.922216 -0.364581 0.065457 0.91787 -0.388553 0.08088
0.553052 0.822754 0.065052 0.58117 0.812043 0.053181
0.114624 0.979855 -0.160119 0.105462 0.981663 -0.158794
-0.808689 0.036053 0.580762 -0.784592 0.033842 0.619088
-0.295877 -0.209956 -0.919949 -0.295878 -0.177513 -0.938587
-0.358959 0.850449 -0.367667 -0.382132 0.84455 -0.375115
-0.082821 -0.193212 0.970601 -0.118601 -0.159803 0.979998
-0.274048 -0.227008 0.926532 -0.269092 -0.226212 0.936172
0.270032 0.911994 -0.287513 0.270642 0.915542 -0.297548
-0.631177 0.471986 -0.612023 -0.627046 0.477846 -0.615204
0.034721 -0.638931 -0.76463 0.053636 -0.642731 -0.764212
0.262708 0.675581 -0.68344 0.266077 0.693394 -0.669633
0.673951 0.615568 0.38952 0.670196 0.645319 0.366608
0.456499 -0.504672 0.721109 0.481083 -0.5365 0.693345
0.324431 -0.932723 -0.177465 0.333444 -0.922033 -0.19665
0.545714 -0.490343 -0.665794 0.557738 -0.47426 -0.68118
-0.695143 -0.718255 -0.012958 -0.705057 -0.708101 0.038577
0.586432 -0.035265 -0.797856 0.595106 0.005197 -0.803631
-0.539206 0.603167 0.577024 -0.532167 0.616359 0.580431
-0.74111 -0.236514 0.619557 -0.737051 -0.219215 0.639297
-0.073577 -0.765105 0.638384 -0.083912 -0.749749 0.65638
-0.256324 -0.793341 -0.553805 -0.198738 -0.792669 -0.57635
-0.371034 0.902823 -0.178977 -0.383887 0.902117 -0.197019
0.785066 -0.585483 0.177981 0.80062 -0.578424 0.156309
0.161458 0.692235 -0.695286 0.156971 0.694363 -0.702297
-0.621701 0.467444 0.622141 -0.59625 0.478069 0.644931
-0.279582 -0.709234 -0.642325 -0.271224 -0.694737 -0.666166
