0.767178 0.307984 -0.555392
0.878334 -0.435293 -0.298572
-0.164919 0.278166 0.959767
-0.450466 0.886446 0.0196085
0.489984 -0.814802 -0.449647
-0.41253 -0.0878693 -0.868878
-0.373676 0.906645 -0.125302
0.152958 0.883201 0.465379
0.67905 0.709445 -0.236592
0.339861 -0.906771 0.272409
-0.162764 -0.907255 -0.436066
0.716486 -0.0784991 0.717547
-0.533165 -0.594999 0.582778
-0.173331 0.452039 -0.893019
0.092052 -0.275286 0.905971
0.60635 0.632226 -0.535722
-0.33263 -0.894213 0.289019
-0.553664 0.80288 0.0258973
-0.187997 0.795378 -0.613985
0.783556 0.667305 0.0728607
-0.93163 -0.299311 0.244646
0.127514 0.447376 0.849882
-0.610186 0.706073 -0.283019
-0.167737 0.896771 -0.346685
0.575627 0.766226 -0.0948628
0.714157 -0.229581 0.616371
0.696588 -0.567705 -0.503271
0.436855 0.897563 -0.12609
-0.0937584 0.164985 0.932756
0.443381 -0.513204 0.773195
-0.7873 0.493717 -0.094973
0.238754 0.934659 -0.116108
0.451474 0.248111 0.800145
0.169279 -0.42974 -0.865259
0.460496 0.857947 0.42574
0.575755 0.658857 0.434138
-0.476732 0.124809 0.893791
-0.400688 -0.519071 0.760349
0.000396387 0.945327 0.344686
0.918898 0.132675 0.226175
-0.473487 0.675167 -0.597624
-0.852004 0.50059 0.164658
-0.988451 0.0237969 -0.244519
0.694153 -0.301913 0.587124
-0.894895 -0.207129 0.525855
-0.0521181 -0.673529 -0.756158
0.0245737 -0.988889 0.253389
0.365195 0.807054 0.502412
-0.330292 -0.755263 -0.581764
-0.507468 0.071205 -0.864029
0.475487 0.0802067 0.894088
-0.656834 0.440337 -0.508412
0.934195 -0.0484883 0.122688
0.919015 -0.0595107 -0.24596
0.191793 0.630232 0.852444
0.374815 -0.960553 -0.0576623
-0.329884 0.200995 -0.959322
-0.622838 -0.716954 -0.0182454
-0.541167 0.542961 0.619543
-0.583935 0.014087 0.801552
0.288401 -0.0315058 0.927333
-0.0331612 -0.0258362 -0.983839
-0.193343 0.891665 -0.25738
-0.40226 -0.886925 0.179963
-0.228215 0.23307 -0.87422
0.425152 0.589115 0.646865
0.966372 0.300522 0.0150369
0.808422 -0.355339 0.376898
0.814706 -0.218756 -0.448554
0.239644 -0.26211 0.959052
-0.646346 -0.587886 0.561579
0.292956 0.742516 -0.636757
0.8501 0.202077 -0.415498
0.596694 -0.174171 0.814124
-0.916765 -0.00524755 -0.222214
-0.373774 -0.930799 -0.22596
-0.169902 0.257169 -0.95191
-0.500272 -0.113691 0.857044
0.540569 0.793533 0.299194
-0.257216 -0.665313 0.73622
0.69017 -0.408203 0.614008
-0.906224 -0.0791707 0.317963
-0.826445 -0.475472 0.0753184
0.86748 -0.4359 -0.167392
0.308435 0.247603 0.954997
0.903646 -0.392593 -0.0657835
0.0704025 -1.0462 0.0316581
0.471465 -0.0386222 0.956888
-0.673298 -0.265745 -0.637816
0.187151 0.66714 -0.71548
-0.409666 0.279486 -0.790721
0.430026 -0.894122 -0.0837244
-0.0217203 -0.847374 0.571343
0.200927 0.864416 -0.362182
0.936026 -0.0334937 0.169091
0.964528 -0.193123 0.345342
0.303096 -0.732391 -0.498847
-0.752826 0.589827 -0.139651
-0.722517 -0.368611 0.582267
-0.60985 0.558433 0.512232
0.313346 0.377748 -0.896129
0.798856 -0.496 -0.328231
-0.949775 -0.214958 0.162745
-0.57372 0.679466 0.432147
-0.300953 0.694736 0.650296
-0.988773 -0.279803 -0.0168799
-0.803977 0.484546 0.0453397
-0.327713 -0.749291 0.542518
-0.882964 -0.505712 -0.0917703
-0.288824 0.6491 0.729393
0.364429 -0.619551 -0.68227
-0.6757 -0.34848 0.595286
0.851402 -0.458519 0.0775291
0.336043 -0.612002 -0.630791
0.0198559 0.625546 -0.768493
-1.02128 0.161345 -0.0582627
0.736706 -0.345538 -0.555628
-0.146605 -0.936286 0.363036
0.375135 -0.469951 -0.846055
0.262722 -0.927196 -0.057728
0.662086 0.430648 0.622672
-0.252821 -0.321204 0.900161
0.504232 -0.61395 0.608485
0.813267 -0.0790451 -0.503806
-0.553674 0.879344 -0.215418
-0.629705 -0.746266 -0.224784
-0.918545 0.171371 -0.419603
-0.908964 0.274842 0.28798
-0.843315 0.399911 -0.254515
-0.046095 0.760815 -0.679884
-0.828772 0.491058 -0.151784
0.746355 0.174532 -0.692626
0.770209 0.532655 -0.278942
-0.366097 -0.678628 -0.610237
-0.874443 -0.159895 -0.400932
0.083288 0.768211 0.557882
0.483522 0.861831 0.171995
-0.325825 0.827576 -0.410321
0.331403 -0.554717 0.702869
-0.259307 0.8069 -0.54495
-0.920539 -0.259943 0.37434
0.134509 0.0531266 0.945188
-0.548402 -0.0535763 -0.726848
-0.411682 -0.3257 0.78944
-0.605471 0.638674 0.473191
0.221415 0.793228 -0.520338
-0.281968 0.608877 0.781859
-0.744554 0.0319448 0.684612
0.575838 -0.479649 -0.686878
0.67642 -0.534109 -0.48156
0.0612796 0.642239 0.813893
0.597731 -0.551252 -0.611121
0.642833 0.414554 -0.647215
-0.0404034 0.839012 0.547344
-0.794309 -0.541855 0.116405
-0.0716647 0.793513 -0.55915
-0.159515 -0.791101 -0.64302
-0.219629 -0.507895 -0.735615
0.864944 0.404185 -0.0878743
0.789027 0.0610432 -0.56049
0.825794 -0.646775 -0.0235862
-0.219639 -0.430343 0.839807
0.848589 0.290069 0.379487
0.938135 0.181113 -0.280779
0.783221 0.599062 -0.133339
-0.50814 0.657906 -0.451495
0.386127 -0.765037 0.465102
0.0256035 -0.617923 -0.690818
-0.235527 0.902135 0.404613
-0.316521 0.685086 -0.658261
-0.191096 0.77208 0.646013
-0.883547 0.396639 -0.0864984
-0.329141 0.212831 0.93203
0.114523 -0.497861 0.894893
0.283713 0.920763 0.259073
0.274976 -0.7729 -0.608662
-0.795014 0.114112 0.528083
0.248023 0.348612 -0.904858
-0.361156 0.838658 0.452233
0.428431 -0.825415 -0.446065
0.70998 -0.43658 -0.555773
0.666025 -0.0549626 0.721302
0.533972 -0.419765 -0.763715
0.536917 -0.31321 -0.789054
0.453413 0.859357 0.307605
0.398489 0.592286 -0.68717
-0.778869 -0.229078 -0.493485
-0.865649 0.00398083 0.472377
0.0349739 0.974689 0.231378
-0.655521 0.71388 0.0271401
-0.852344 0.219873 0.385739
-0.172865 0.909194 0.331356
-0.826254 -0.0454162 -0.406347
-0.973545 0.114499 0.212415
-0.565186 -0.751224 0.330879
-0.722622 -0.504875 -0.490738
0.654199 0.728686 0.313129
-0.195022 0.821072 -0.405518
0.756495 -0.590489 0.377789
-0.743024 0.460741 0.482165
0.351865 0.789006 -0.350192
0.765929 -0.52668 0.400895
0.842415 -0.301433 0.484911
-0.292859 0.826984 -0.434053
-0.438963 0.814459 0.400048
-0.537315 -0.550614 0.690794
-0.492475 0.466851 0.674903
-0.900193 0.21258 -0.286475
0.46983 0.80133 -0.0787133
-0.475338 0.799463 0.364005
0.181246 -0.937005 0.254675
-0.42214 -0.718149 -0.55521
-0.494239 -0.237516 0.8199
0.744408 -0.158696 0.654132
0.635021 0.476565 0.618924
0.210834 -0.76236 0.631581
-0.919397 -0.237811 -0.386937
0.366239 -0.895353 0.125394
-0.128407 -0.958646 0.218037
0.749515 0.763609 -0.0291624
-0.608346 0.772654 -0.0102377
-0.131807 0.297901 -0.99856
0.337718 -0.432655 -0.891773
0.359013 0.260196 -0.882569
-0.230858 0.919803 0.162379
0.477739 0.541166 -0.80194
0.432675 -0.628452 0.655476
-0.59555 -0.487483 0.656735
0.171657 0.757235 0.597501
-0.647984 -0.710475 -0.388749
0.155874 0.383456 0.96893
-0.113396 0.96676 0.171252
1.01471 -0.158945 -0.201575
0.125283 0.985756 -0.113888
-0.658056 -0.403529 -0.692883
0.849787 0.475892 -0.064648
0.653756 -0.680292 0.325572
-0.447285 -0.3946 0.739123
-0.473238 0.791426 -0.317702
-0.48743 -0.328561 -0.735695
-0.0245521 -0.771662 -0.624447
0.700316 0.580217 0.479656
0.748955 -0.192835 -0.563903
0.920983 0.0255753 0.391053
0.493328 -0.701128 0.494923
0.752059 -0.135913 -0.655088
-0.758176 0.727441 0.0881243
0.662253 -0.73933 0.173597
-0.374039 0.417391 -0.84952
0.887944 0.42359 0.103692
0.266002 -0.676104 -0.66872
0.79623 -0.594352 0.0548706
0.297284 0.168293 0.943654
0.702672 -0.714195 -0.0586705
0.0781481 -0.984424 0.134558
-0.589272 0.492949 -0.67228
0.546661 -0.769735 -0.247169
-0.41752 -0.085883 0.896034
0.496752 0.291227 -0.777199
0.116458 0.768385 -0.626544
0.851763 0.554816 -0.157869
0.812685 -0.133965 0.570917
0.0345924 -0.0788601 -1.03405
0.288679 -0.250177 0.929246
-0.283254 -0.93959 -0.217822
0.684622 -0.207657 -0.663202
-0.649652 0.73308 -0.0443811
-0.741896 -0.698946 -0.0164012
-0.695217 -0.152998 0.659287
0.939018 0.297383 0.11866
0.507831 -0.868532 0.0998149
0.396542 0.792986 -0.496488
0.627817 0.69621 -0.376876
0.598633 -0.73528 0.34502
0.169391 -0.81238 0.356322
0.951582 0.421294 -0.0146219
-0.433798 0.344265 -0.790268
-0.525975 0.279704 -0.775719
0.298417 -0.667298 0.697517
-0.521443 0.433357 -0.744757
-0.736647 0.102372 -0.665366
-0.671374 0.397792 -0.584703
0.0226528 -0.0390656 -0.949689
-0.992022 0.222705 -0.0792394
0.990472 -0.105174 0.00873362
-0.572001 -0.585127 0.627938
-0.0874898 -0.863392 0.436178
-0.0193973 -0.929267 0.362354
0.747131 0.591507 -0.0270837
-0.489911 0.593092 0.660088
0.599017 0.337325 -0.737838
0.244302 -0.381603 0.936991
0.467542 0.718024 0.487842
-1.02814 0.0726337 0.0142628
0.646379 0.691324 -0.145135
-0.580382 -0.739874 -0.21917
0.660843 0.753148 0.204772
-0.10033 -0.634209 -0.832594
-0.811627 0.128279 0.352027
0.0103557 0.662555 -0.664452
0.44764 -0.556467 -0.737887
0.223897 -0.611476 0.741612
0.34751 0.634046 -0.711349
-0.119108 0.525787 -0.795809
0.507755 0.653438 -0.542761
0.846337 -0.542183 -0.0386589
0.0951482 0.294217 -0.923707
-0.666682 -0.696755 -0.00409467
0.480792 -0.906482 0.209184
-0.453582 -0.540704 -0.725466
-0.406261 0.5045 0.68086
0.431939 0.327445 -0.864941
0.83227 0.117089 -0.517565
-0.521573 -0.658571 -0.551703
-0.801755 -0.0939681 0.625559
0.776382 0.432953 -0.5199
-0.0952789 -0.624594 0.772337
-0.805161 -0.155817 -0.471431
-0.883272 -0.436031 0.187583
0.451249 0.0478793 -0.902127
-0.115563 0.809615 -0.49943
0.688481 -0.473952 0.514787
-0.818619 0.364111 0.455507
-0.628409 0.0749113 0.727224
0.408187 0.725958 0.557299
-0.352144 0.0386165 -0.925684
0.130613 0.101313 0.919581
-0.0128123 0.373497 0.922198
-0.96057 -0.0668186 0.114501
-0.346735 -0.0952686 -0.921372
0.572055 0.68614 -0.451772
-0.441704 0.310404 0.783259
-0.35813 0.740833 0.535998
0.09379 0.57937 -0.77912
0.887135 -0.462188 -0.214938
-0.374065 0.380911 0.897196
-0.162478 -0.10404 1.04007
0.560711 0.0108094 0.763814
-0.240696 0.128888 0.959975
-0.584295 -0.766975 0.224866
0.649417 -0.619576 -0.347383
0.800288 0.11918 -0.568837
0.938945 0.187837 0.0427671
0.475431 0.394976 -0.764758
-0.82644 -0.394802 -0.309608
0.674198 0.478998 -0.455572
-0.119649 -0.211229 0.952413
0.283893 0.659602 0.695197
-0.221471 -1.0126 -0.142059
0.795222 0.623597 0.141589
0.893078 -0.329841 0.162882
-0.0400648 0.0210244 0.992682
-0.791369 -0.51656 -0.290694
0.576047 0.595757 0.61164
0.21767 0.507888 0.816033
-0.616114 0.493654 0.609125
-0.803416 -0.552011 -0.0453708
-0.714331 -0.726052 -0.132393
-0.941361 0.21142 0.231772
-0.37742 -0.926262 0.09582
0.419827 -0.0721754 -0.88895
-0.351268 0.120114 0.971934
0.414311 0.456406 0.754939
-0.150183 -0.444371 0.948627
-0.12946 -0.585582 -0.747233
0.650409 0.266798 -0.749594
0.663067 0.677105 0.152727
0.157171 0.906008 -0.0511933
0.411175 0.713731 -0.617144
-0.3795 0.278368 0.844666
0.299201 -0.915684 -0.140037
0.747512 0.552986 0.387659
0.94502 0.0573135 -0.414632
0.641786 0.503886 -0.505079
-0.253189 0.870544 -0.227874
0.170358 0.656992 0.683258
0.687086 0.355204 -0.639658
-0.702399 0.0345565 0.661984
-0.819601 -0.299864 -0.442017
-0.321475 -0.913911 -0.353562
-0.103989 -0.0154831 -0.954384
0.40907 -0.700613 -0.589656
-0.822842 0.0259366 0.599275
0.47376 0.34985 0.771231
-0.930142 0.0512122 -0.443002
0.0643847 -1.00535 0.0385919
0.829302 -0.314547 -0.421882
0.898717 -0.463314 0.0367301
0.712354 0.383222 0.576506
-0.240051 -0.285686 -0.883106
-0.35992 0.292801 -0.869464
0.789165 -0.643057 0.0517019
-0.291625 -0.0189183 0.901531
0.79275 0.392979 -0.390485
-0.332589 -0.788112 -0.502314
0.926056 -0.197925 -0.362253
-0.728215 0.151631 -0.475222
0.139788 -0.300643 -0.903015
0.901123 0.313997 -0.284607
0.510243 0.714838 -0.589192
-0.679964 -0.639916 -0.299852
0.957652 0.0979413 0.0598364
0.0317969 -0.817509 -0.640167
-0.206749 0.536822 0.824176
0.159699 0.610899 -0.727487
0.23084 0.105111 0.964485
-0.0682076 0.334612 -0.966283
0.411221 0.460752 -0.76669
0.0631065 0.176104 0.977281
0.688183 -0.747771 0.189679
-0.813832 0.50948 0.401564
0.905621 -0.162194 0.330767
0.117813 -0.948237 -0.232821
-0.831057 0.624789 -0.197554
-0.676998 0.203862 -0.741823
0.164112 0.950151 0.119818
-0.1446 -0.203419 -1.00374
-0.213727 0.798494 0.413868
-0.275218 -0.399321 -0.941109
0.732084 -0.698788 0.197108
-0.934281 -0.117487 -0.340389
0.603454 -0.43946 -0.662604
-0.794505 -0.414064 0.376895
1.04343 0.0890047 -0.0720593
-0.128332 -0.997143 -0.219105
0.642444 0.548226 0.527393
-0.367271 -0.204303 0.88567
0.793458 0.59648 0.0770105
0.651806 0.775943 0.0929557
-0.730788 0.666079 0.292572
0.0771043 0.966019 -0.199152
-0.618 -0.663218 0.322306
0.515399 0.575236 0.623993
-0.748521 0.688049 -0.0615919
-0.460366 -0.153427 -0.862522
-0.326112 -0.15252 -0.954399
-0.339686 -0.635423 0.641919
-0.456059 -0.75992 0.412096
-0.540537 0.228939 -0.793831
-0.488187 0.52596 -0.719929
0.615954 -0.622685 0.413409
0.304503 0.939488 -0.273028
0.945211 0.236488 -0.184274
0.865466 0.215046 -0.53872
-0.810618 -0.685534 0.0702688
-0.209691 -1.02763 0.228937
0.183352 0.94101 -0.211695
-0.0062064 0.597171 0.820682
-0.266095 0.523494 -0.874337
-0.0765182 0.987804 -0.214504
-0.417668 0.918723 -0.0711315
-0.170404 -0.275457 -0.918155
-0.733446 0.281135 0.570566
0.135035 -1.0034 0.151095
0.0585129 0.325277 0.961771
0.0285829 0.771453 -0.638769
0.90442 -0.0326255 -0.423337
-0.207031 0.404958 0.865803
0.90991 -0.0810753 -0.313309
0.283319 0.981284 0.0749879
-0.245375 -0.585812 -0.752139
-1.02423 -0.102861 -0.0273885
0.298175 -0.896177 0.387633
0.350078 0.5444 -0.807986
-0.021273 0.936106 0.308638
0.198076 -0.852807 0.533819
0.676503 0.150491 -0.694309
0.548225 -0.613435 -0.449246
-0.421154 0.583994 -0.662283
0.112256 0.217773 -1.01961
0.1476 -0.276175 0.900194
0.106976 0.409883 -0.93531
0.516949 0.893468 -0.194024
-0.367256 0.499783 0.818648
0.661175 0.0819323 0.705497
0.42758 -0.00435064 0.890084
-0.21033 0.620912 0.701449
-0.206623 0.946342 -0.0835853
0.306729 0.744797 0.642579
-0.279992 -0.941195 -0.225014
-0.195532 -0.188511 0.937857
-0.695234 -0.0724743 0.73306
-0.916561 0.355544 0.0560754
-0.149967 1.02696 -0.0427052
0.112282 -0.93454 -0.335805
-0.450194 -0.865074 0.274333
-0.00135197 0.957011 -0.148404
0.466538 -0.702909 0.593125
-0.17328 -0.824838 -0.544776
-0.0900329 0.681497 -0.685454
-1.00267 0.00349001 0.000979629
-0.510324 0.557876 -0.548439
-0.49231 -0.860446 0.0163489
-0.12983 -0.904566 -0.316961
0.00743098 -0.485661 -0.88462
0.388067 -0.254544 0.902692
-0.654119 -0.277458 0.723073
-0.951061 -0.172783 -0.146883
0.953518 -0.243828 0.06186
0.717852 -0.261373 -0.680877
-0.46551 0.807704 -0.348627
-0.254067 -0.868605 -0.367209
-0.931786 0.026176 0.192363
-0.561499 -0.010261 0.831907
-0.880302 0.394602 0.277588
-0.299099 -0.0255265 -0.96424
-0.0701201 -1.00509 -0.17223
0.438766 -0.280635 -0.804313
-0.959926 -0.205373 0.407297
-0.0183535 -0.532488 0.849016
-0.75994 -0.590865 0.119604
0.591405 -0.518755 -0.569778
-0.177948 -0.370954 -0.942963
-0.415007 0.740643 -0.568334
0.219022 -0.980746 0.0920945
-0.517831 0.203925 0.804209
0.0215737 -0.611591 0.791614
-0.330535 0.756031 0.586452
-0.568813 0.129682 -0.738989
0.335082 0.0959417 0.966667
-0.181724 -0.703453 -0.67826
-0.654827 -0.606744 0.444551
-0.418597 0.887372 0.249759
0.278817 0.149136 -1.00975
0.867945 -0.0697251 0.485571
-0.490886 -0.798832 0.0784714
-0.729013 -0.310296 0.573757
0.35443 -0.87433 -0.336956
0.676009 -0.610442 -0.357756
0.539951 -0.0515143 -0.877445
-0.72432 0.384871 0.554402
-0.297631 -0.763503 0.469417
0.771518 -0.559654 0.26033
0.778453 0.116937 0.607711
0.220262 -0.160416 0.954452
0.0683463 0.123881 -0.996528
-0.907745 -0.301873 -0.0904719
0.2305 -0.914567 -0.212532
-0.265244 0.981501 -0.0103872
0.744895 0.228274 0.65858
-0.616362 -0.219774 0.761131
-0.926148 -0.155824 0.277322
-0.244635 -0.919879 0.145614
0.358794 -0.859442 0.392276
0.569272 -0.800005 -0.179873
0.430508 -0.168543 -0.933829
-0.841537 -0.33743 0.148985
-0.393288 0.639422 0.622878
-0.263763 -0.732112 0.632877
0.785078 0.19291 0.559345
-0.242862 -0.220428 0.899086
-0.479291 -0.698726 0.464756
-0.83629 -0.275455 0.447877
-0.954065 -0.129893 0.420927
0.163673 -0.0901833 -1.04004
-0.743401 0.114082 -0.736682
0.551922 0.709873 0.380356
0.723783 0.631921 -0.0863945
-0.167989 0.566734 0.772318
0.728608 0.602981 -0.232908
-0.591777 -0.152299 0.793165
0.425246 0.847328 0.241467
0.623508 -0.69137 -0.174468
-0.591315 -0.724124 -0.312217
-0.570812 -0.684291 -0.390379
0.705678 0.0309692 -0.678966
0.109935 0.938311 -0.454267
0.79173 -0.475898 -0.503413
0.52124 0.131495 -0.807079
0.824513 0.399159 0.435564
0.747615 0.690443 -0.22871
-0.107355 0.507122 0.842152
-0.742335 0.0815112 -0.563793
0.635075 -0.645927 -0.417642
-0.770943 -0.377745 -0.492612
0.317672 0.750427 -0.647867
0.201776 0.780014 0.540587
-0.933073 -0.255885 -0.244833
-0.776039 -0.521834 0.367769
0.345856 0.97543 -0.0419315
0.600006 -0.686712 0.478765
0.929896 0.340082 0.0370154
0.0850367 0.833006 0.452883
-0.0590105 0.455414 -0.887463
0.218616 0.320032 0.917435
-0.707177 -0.0591897 -0.736636
0.915013 0.113046 -0.35016
0.481654 -0.443929 0.748626
-0.145755 -0.0726209 -0.973581
0.534808 0.617944 0.482304
-0.457895 -0.226682 -0.811013
0.239787 1.03852 -0.0238611
-0.263069 -0.885236 0.247546
0.553648 -0.590035 -0.636606
0.800355 0.0116076 0.585537
0.941361 0.278049 0.299402
-0.794781 -0.596818 -0.140437
0.908774 0.377436 -0.14663
-0.488503 0.734257 0.439771
-0.680251 0.701361 0.31641
0.588049 0.50869 0.599711
0.992978 -0.136631 0.0923872
0.303065 0.593809 0.72407
-0.0569394 0.34686 0.938767
0.654832 0.0315353 -0.756721
0.909311 0.0349559 0.120887
-0.161259 -0.79833 0.485058
-0.0392665 1.00043 0.051594
0.963139 0.252151 -0.286747
0.0954736 -0.928862 -0.441585
0.857119 -0.424594 -0.333543
-0.697273 0.295728 -0.549747
-0.711054 -0.414945 -0.624956
0.548811 0.289404 -0.862682
0.00200265 0.834943 0.434447
0.581544 0.311159 0.726869
-0.474322 -0.742701 -0.415606
0.692944 -0.513664 0.505655
0.533918 0.806184 -0.397771
0.444131 -0.817208 -0.324122
-0.771666 0.539054 -0.420229
-0.294266 -0.840994 0.438495
0.512032 -0.802571 0.0113282
-0.0938178 -0.781474 0.654253
-0.861407 -0.450262 -0.200538
-0.038746 -0.702402 -0.612353
0.0403923 -0.371996 0.96205
0.236429 -0.344989 -0.911267
0.568617 0.366531 -0.769003
0.243294 -0.585737 -0.66044
0.709704 0.595764 0.37422
0.386335 -0.455959 -0.793533
-0.161117 -0.991371 0.0622526
-1.01338 -0.05837 -0.118528
0.881632 -0.435701 0.279978
0.536281 0.617167 -0.509942
-0.664959 -0.639555 -0.0750674
0.615213 0.778544 -0.0394955
-0.766489 -0.168989 0.640446
-0.696852 0.281813 0.626105
-0.57324 -0.794569 0.167051
0.183282 -0.00156647 0.951148
-0.554857 -0.593105 -0.477144
0.0665949 -0.823984 0.589251
0.555725 -0.0116226 0.879768
-0.206353 -0.580251 0.760411
-0.0973601 -0.690313 0.715361
-0.31947 0.874105 -0.274354
-0.788168 0.489657 0.276889
0.382391 0.409717 0.800487
-0.415513 0.928851 0.0754108
-0.688629 0.268862 -0.689596
0.706267 0.384454 0.573517
-0.437487 0.758452 -0.444975
-0.857419 0.463981 -0.367403
0.533077 -0.792514 0.208159
-0.730858 0.610327 -0.0057169
0.172414 -0.760581 0.664886
-0.540136 -0.139994 -0.830685
0.233159 0.407249 0.853397
0.348786 -0.863302 -0.315828
-0.100867 -1.0069 -0.0547176
0.528335 -0.194259 0.842521
0.201098 -0.950986 -0.0956078
-0.87999 0.320127 -0.219258
-0.894674 0.343364 -0.335327
0.573883 -0.748336 -0.065314
-0.517193 -0.701051 0.428973
0.73012 0.241201 0.648148
-0.496366 -0.799036 -0.0484006
0.218561 -0.906772 0.211396
0.94352 -0.00685478 -0.190043
0.955116 0.0205844 0.254049
0.380813 0.854041 -0.416296
-0.90799 -0.408947 -0.0321892
-0.794169 0.215961 -0.430504
-0.295863 0.628024 -0.752124
-0.76143 0.172049 0.658392
-0.392399 -0.90751 0.346204
-0.0112545 0.953325 0.294765
0.476739 0.479772 0.712442
-0.826862 -0.504736 0.277879
0.709284 -0.643072 -0.204148
-0.174293 -0.468843 -0.850504
0.0993746 0.763795 0.677192
-0.749979 -0.626334 0.255267
0.872762 -0.285536 0.187725
-0.349737 -0.528976 0.803231
-0.175904 -0.550662 0.863486
0.451352 -0.913987 0.0610066
-0.716983 -0.180224 -0.625916
0.688577 0.0163005 0.685453
0.39827 -0.854525 -0.227664
0.0362632 -0.933686 0.428013
-0.550415 -0.305814 0.654024
-0.3703 -0.0980126 0.874935
-0.066142 -0.531937 -0.840756
-0.0555235 -0.795683 -0.510158
-0.557515 0.611064 0.542013
-0.905213 0.267035 0.273105
0.42841 -0.768001 0.455906
0.290951 -0.367193 0.868944
-0.469558 -0.663508 0.579618
-0.864946 0.402101 0.379733
0.886404 0.0629812 0.456026
0.561886 -0.752182 -0.382291
-0.900658 -0.383814 -0.144891
0.859316 0.414976 -0.310912
0.0423617 -0.665812 0.741282
-0.28551 -1.00229 -0.0264487
0.604168 -0.594074 0.526663
-0.084861 0.725374 0.660923
0.902818 0.46624 0.343684
0.353298 -0.62209 -0.626707
-0.758938 0.548018 0.34378
0.95578 0.0788494 0.283506
-0.861367 -0.0993477 0.515871
-0.949136 0.149637 -0.312188
0.696001 0.1679 -0.725146
-0.171371 0.750064 -0.686591
0.64152 0.00853944 -0.807094
-0.860515 -0.465771 -0.0216695
0.938015 -0.342346 -0.395935
-0.40976 -0.861573 -0.0887446
-0.324804 0.916662 -0.141655
-0.731282 0.191273 -0.693794
0.648919 -0.332733 -0.663919
-0.651939 -0.0888407 -0.746218
0.677208 -0.243699 0.68965
0.124733 -0.966688 -0.29773
0.119165 -0.699033 0.740199
0.84947 0.272166 0.359215
0.790383 0.302184 0.522354
0.580676 -0.253947 -0.721794
-0.425866 0.0762091 0.886119
0.155199 0.885773 -0.426522
-0.424488 0.284439 -0.868585
-0.886682 0.475796 -0.00694043
0.612715 -0.786973 0.0889148
0.880333 0.129543 0.378737
-0.910777 -0.381304 0.0656972
-0.371689 -0.610349 -0.755441
-0.54792 0.774982 0.312124
-0.362261 -0.25296 -0.886397
0.349037 -0.107811 -0.94917
-0.633231 -0.687214 0.116709
-0.219691 -0.56767 -0.706201
0.958979 -0.321382 -0.204839
0.883312 -0.0149018 0.317057
-0.79091 -0.573177 -0.249647
-0.900666 -0.393636 0.263551
-0.0392475 -0.941456 0.212556
0.126038 1.01635 0.0670005
0.485542 -0.0715379 -0.895736
0.496863 -0.348025 0.783621
-0.00211684 -0.9068 0.462568
0.312361 0.00357777 -0.941945
0.707369 0.541678 -0.314709
-0.201986 0.56875 -0.763838
-0.712169 0.681455 -0.288737
0.0410971 0.512671 0.837832
-0.0482262 0.492033 -0.804637
0.250027 -0.535429 0.80254
-0.119469 -0.89309 0.318698
0.597857 -0.371304 0.746818
-0.0596965 0.263912 0.969879
-0.610871 -0.528916 -0.530097
-0.322233 0.930149 0.176081
0.878266 0.0806153 -0.424497
-0.474759 0.609283 -0.645611
0.40322 -0.49946 0.779195
-0.46868 -0.868087 -0.200358
0.347519 -0.316994 -0.846294
-0.606393 0.765025 -0.120229
0.514233 0.523163 -0.619587
0.0579916 0.894195 0.391233
-0.191346 -0.411961 0.884719
0.98166 0.208999 -0.0400393
0.258252 -0.76304 -0.497283
0.571327 -0.834281 -0.127425
-0.0702839 -0.0838552 0.920318
-0.401077 0.0448801 -0.936398
0.781288 0.306966 -0.536283
-0.213578 -0.141561 -0.977505
-0.347955 0.950813 -0.0538297
-0.790626 -0.140735 -0.581773
0.182776 -1.02256 0.029313
0.830471 -0.577973 -0.128276
0.849491 -0.214747 0.486917
0.824666 -0.509349 0.177022
-0.696445 -0.122796 0.599136
0.875659 0.524293 0.020847
0.905063 -0.23547 -0.241508
0.216306 -0.940845 -0.127756
-0.728136 -0.639849 0.252503
0.452641 0.716292 -0.399567
0.646917 0.723796 -0.263497
0.485668 0.852546 -0.24916
-0.700479 0.732683 -0.0888898
-0.783488 -0.522617 -0.37498
-0.501375 -0.506162 -0.699145
-0.929281 0.121482 0.231156
-0.643047 0.481197 0.537323
0.379825 0.853181 -0.466959
0.103096 -0.256244 -0.945458
0.00465135 -0.87726 -0.532569
-0.321103 0.741632 -0.569659
-0.600413 -0.456919 -0.62258
-0.283617 -0.856618 0.346461
-5.67299e-06 -0.89803 -0.40566
-0.225556 -0.783002 0.510694
-0.501767 -0.553823 -0.668639
-0.245302 -0.669936 -0.585169
0.269398 0.389195 -0.895653
0.105469 -0.37024 -0.840585
-0.201942 0.987722 0.145383
-0.642329 0.599235 -0.414805
-0.911444 0.0758794 0.365532
-0.0267204 -0.901032 -0.236384
0.302605 -0.761867 0.609476
-0.802649 0.651897 0.0408599
0.963589 -0.0138779 -0.0484026
-0.594006 -0.63893 0.481094
0.151552 -0.0744036 1.03341
0.0720674 -0.718648 -0.656833
0.972944 0.349058 0.26036
0.159489 0.936363 -0.335999
0.886803 -0.293757 0.316793
-0.697553 -0.617744 -0.275951
-0.677895 0.648364 -0.352159
0.0571013 -0.998305 -0.0574843
0.970755 -0.223927 -0.107924
0.619531 0.729866 0.193096
-1.02684 0.103356 -0.0948611
-0.316912 0.113602 -0.954039
0.827995 0.320528 -0.430865
0.86105 -0.24238 0.422579
0.0544813 -0.179062 0.934104
0.304923 0.849938 0.379137
-0.934372 -0.00879359 0.338091
0.625116 -0.138316 -0.748635
-0.618735 0.629512 -0.505681
-0.118982 0.634557 0.762875
-0.119638 0.576221 -0.808329
-0.895998 0.248526 0.189026
-0.646296 0.752439 0.28624
-0.369946 -0.510954 -0.750415
-0.843746 0.0351385 -0.556144
-0.77321 -0.698323 0.171215
-0.462901 -0.653199 -0.587273
-0.674835 0.611922 0.37149
-0.798934 -0.414704 -0.473032
0.910158 0.304987 0.37249
0.73957 0.0617511 0.656615
0.152594 -0.648213 0.778774
-0.632036 0.437682 0.6405
-0.751443 -0.597701 0.404287
-0.566973 0.309109 0.768655
-0.187838 0.953849 0.261647
-0.50495 -0.353736 -0.689495
-0.710183 -0.190731 -0.667443
0.343827 0.843498 0.0148928
0.272485 -0.269327 -0.92347
-0.47695 -0.757353 0.241762
0.166609 0.98632 0.255839
0.212047 -0.217147 -0.968137
0.139329 0.230236 0.941485
-0.156229 -0.292555 0.941355
0.241806 -0.526699 -0.766019
0.146932 -0.484766 -0.871786
-0.356214 0.889176 0.370288
-0.128405 0.802417 0.594015
-0.507103 0.130259 0.854831
-0.5074 0.823843 -0.0701566
-0.168237 -0.781017 0.558809
-0.105549 0.398146 0.911875
-0.265551 0.368533 -0.876016
-0.327605 0.541133 -0.783332
0.618466 -0.470996 0.689969
-0.0516491 -0.301459 -0.894728
-0.887655 0.00480569 -0.345166
-0.9304 0.139978 0.0389259
0.0255498 -0.367422 -0.939444
0.782022 -0.331573 -0.522476
-0.775826 -0.468805 0.484608
-0.680752 -0.602353 -0.387923
0.31714 0.761458 0.522602
-0.0502286 0.912597 -0.29462
0.574013 0.25517 0.763406
-0.562704 0.709309 0.172243
0.213426 -0.824807 -0.450367
-0.671539 -0.744736 0.0025372
-0.538683 0.424852 0.779526
0.796529 0.652343 0.333006
-0.179008 0.236783 0.975579
-0.45909 -0.725578 0.489907
0.488469 -0.831262 0.314656
-0.611343 -0.288956 -0.721611
-0.301811 -0.502418 -0.8309
-0.0321634 0.0882409 -0.937573
0.28227 0.881655 0.195301
0.466423 -0.228794 -0.852622
0.778982 0.604465 0.291393
0.756758 0.668298 -0.412645
0.37477 0.5897 -0.765952
-0.836562 0.0243412 -0.615561
0.596399 -0.705283 -0.335457
0.378075 0.247208 -0.936421
-0.585187 0.214195 0.738427
0.868048 0.517252 0.210626
0.815058 -0.54662 -0.243564
1.00821 0.165485 -0.168631
0.516285 0.133284 -0.858224
0.56228 0.432295 0.704117
0.54693 -0.419114 0.697755
-0.72818 -0.538832 -0.38026
-0.571984 0.631856 -0.363615
-0.821857 -0.0868422 -0.497695
-0.639966 0.343994 0.670188
-0.427801 0.822861 0.188364
-0.421533 0.905811 0.0931224
-0.835332 0.380596 -0.444852
0.140171 0.940403 0.3078
-0.646377 -0.463041 -0.552909
0.382417 0.814941 -0.289099
-0.00658323 -0.158426 -0.970072
0.0992632 -0.497701 0.80129
-0.0922252 0.897076 -0.325929
-0.75985 0.503447 -0.249055
-1.01339 -0.07763 0.141823
0.661004 -0.702021 0.0185036
0.594178 0.474111 -0.594937
0.0728623 -0.843389 -0.631628
0.18264 -0.644003 -0.818683
0.512371 -0.726247 0.415706
-0.379287 0.859368 -0.256549
-0.951881 0.166902 -0.0273229
0.241141 -0.143518 0.954292
1.02207 0.0880335 -0.212405
-0.845533 0.120975 -0.458745
0.51794 0.171333 0.859285
-0.460768 -0.379015 0.877843
-0.161398 0.607284 -0.703063
0.284216 0.87331 0.300092
0.465866 -0.113744 0.838367
0.0193294 0.808896 -0.50209
0.737701 -0.660564 -0.0434235
0.20855 -0.770121 -0.585348
-0.288767 -0.107352 0.944472
-0.48141 -0.827282 -0.383043
0.349725 0.117873 -0.915842
0.617209 -0.25486 0.757763
-0.419742 -0.601331 0.609746
0.0956146 -0.702688 -0.677137
-0.803884 0.281716 -0.525708
-0.970977 0.0445241 0.0856701
-0.260532 -0.786618 -0.539687
-0.665827 0.185685 0.822685
-0.649011 -0.370831 0.61751
0.141645 0.532086 -0.853119
0.0606929 1.04565 -0.0560457
0.546691 -0.795661 -0.0687055
-0.4546 -0.849681 -0.307895
-0.880328 -0.251813 -0.245267
0.0336556 0.878948 -0.446536
0.361077 -0.832744 0.362125
-0.877116 -0.356172 0.352382
0.250955 -0.677398 -0.666879
0.0301202 0.942971 0.0042178
0.694236 -0.46499 -0.534481
-0.329297 0.00895136 0.941384
-0.975432 -0.0819241 0.208087
-0.572563 0.520362 -0.624665
-0.523825 -0.754069 -0.353549
-0.516977 0.625742 0.529635
0.563577 0.355666 0.682323
0.910831 -0.304765 0.00423059
-0.468236 -0.612399 -0.635023
0.355063 0.899147 -0.173762
0.00829888 0.72415 0.696832
-0.631637 0.00282624 -0.730941
0.335163 0.76248 -0.511067
-0.713889 0.223859 0.65886
0.158954 0.018778 -0.980811
0.662007 -0.062162 -0.677203
-0.398292 0.473077 -0.770192
0.280412 0.68666 0.664105
0.0353195 -0.836645 0.527216
-0.182543 -0.887731 -0.310922
-0.674105 -0.623432 0.222984
0.0243751 0.23838 -1.01038
0.205631 -0.804042 -0.337439
-0.428733 0.0405396 -0.810715
0.354321 0.228971 0.928748
0.804469 0.457893 -0.403243
-0.00780004 -0.517157 -0.78595
-0.845867 0.576198 0.0641877
0.562138 0.0968863 0.785677
-0.380062 -0.441752 0.841727
1.0484 -0.129848 0.00228339
0.239031 0.475032 -0.811897
-0.641127 0.566324 -0.54951
-0.993346 0.106511 -0.214256
-0.201576 0.108767 -0.950421
-0.761687 0.567099 0.23913
-0.18166 -0.604454 0.70982
-0.848468 0.34583 0.200298
-0.653928 0.327156 -0.699974
-0.442547 -0.505133 -0.775119
-0.42849 0.561484 0.693411
0.762782 -0.582221 0.13742
0.496184 -0.517634 0.630257
-0.831691 -0.387267 -0.293361
0.129612 0.871578 -0.505364
0.0153137 -0.753774 0.699403
0.0207471 0.425652 -0.831477
0.32099 -0.689519 0.5379
-0.716494 -0.358828 -0.640268
-0.0600545 -0.92218 -0.375118
0.686947 -0.59269 0.278264
-0.41462 -0.76147 0.438341
0.887783 -0.327393 0.100794
0.529656 -0.63722 -0.570672
-0.77518 0.398312 -0.456083
-0.646992 -0.213738 -0.723598
0.51329 0.798406 0.0386791
-0.223864 0.815885 0.5919
0.659653 -0.734362 0.246142
0.260933 0.616711 -0.748124
-0.393575 -0.891449 -0.0909498
-0.181028 0.0248565 0.985342
0.406498 0.938481 0.0932775
-0.664938 -0.455743 0.5691
-0.503118 -0.0199853 -0.83681
-0.755888 0.711687 0.223234
-0.0563565 -0.323103 0.925249
0.619419 -0.336948 0.634266
-0.697577 0.58454 -0.354259
0.0112388 -0.318829 0.910544
0.745274 -0.0609705 -0.548103
0.380013 -0.172742 0.87696
0.461995 -0.181283 -0.828022
-0.676719 0.112147 0.725113
-0.442643 -0.913393 0.00997012
0.207698 0.22582 -0.872651
-0.12727 0.18498 -0.954159
0.217119 0.0603673 -0.915949
-0.0440876 -0.945696 0.0922502
0.580481 0.797822 -0.211279
-0.8556 0.296632 -0.210657
