0.808226 0.117261 -0.577079
0.931466 0.110706 -0.346577
0.871648 -0.131653 -0.47212
-0.327755 -0.00105659 -0.944762
-0.0580354 0.0579026 -0.996634
-0.183939 -0.197896 -0.96281
0.829957 0.360883 -0.425365
0.923676 0.333015 -0.189536
0.713892 -0.126125 -0.688803
0.513392 0.573062 0.638771
0.428916 0.396629 0.811614
0.615049 0.262168 0.743628
0.871772 -0.368646 -0.322668
0.721128 -0.58518 -0.370863
0.746733 -0.364866 -0.556115
0.96676 -0.129368 -0.220541
-0.365578 0.881014 -0.300279
-0.274117 0.800507 -0.532962
-0.543354 0.72609 -0.421378
0.00943815 0.685875 0.727658
-0.208165 0.541985 0.814198
0.0168507 0.472314 0.881269
0.0823297 -0.492965 0.866145
0.120043 -0.202661 0.971863
-0.0950013 -0.329561 0.939342
-0.680565 -0.0767869 0.728653
-0.744705 -0.294182 0.599059
-0.558617 -0.340775 0.756188
0.25671 0.868262 0.424525
0.362716 0.910252 0.199697
0.0941943 0.959013 0.26725
0.691324 0.596852 0.407232
0.60719 0.769516 0.1979
0.484569 0.759812 0.43345
-0.843329 -0.0355884 -0.536218
-0.824109 0.249077 -0.508729
-0.71219 0.0823723 -0.697137
-0.970571 -0.224675 -0.0866794
-0.992327 0.00595646 0.123496
-0.992092 0.00500535 -0.125415
-0.882154 0.38635 -0.269327
-0.747404 0.624499 -0.22669
-0.735712 0.502781 -0.453806
-0.969382 0.237553 -0.0621782
-0.877884 0.478619 -0.015611
-0.939416 0.286418 0.188312
0.0286312 -0.969326 0.244104
-0.20841 -0.90631 0.367651
-0.221064 -0.971493 0.0856215
-0.532673 0.838905 0.111794
-0.573827 0.804397 -0.153847
-0.730043 0.682116 0.0418929
0.492354 -0.484998 0.722748
0.304567 -0.36817 0.878459
0.282341 -0.61611 0.735318
-0.0984849 0.262695 0.95984
0.103153 0.954864 -0.278558
0.17876 0.983876 -0.00581248
0.342539 0.912663 -0.222964
-0.483015 -0.113547 0.868219
-0.558343 0.145535 0.816745
0.629467 0.0987688 -0.770724
0.288355 -0.30755 -0.906788
0.479494 -0.110398 -0.870573
0.564314 -0.326294 -0.758342
0.246825 0.557095 0.79292
-0.818205 0.517938 0.249561
0.0291948 0.837675 -0.545388
0.264143 0.848883 -0.45785
-0.83445 -0.383512 0.395743
-0.933931 -0.147624 0.325545
-0.944489 -0.295213 0.144186
0.802665 0.566991 0.185067
-0.277028 0.244964 -0.929112
-0.418501 -0.865596 0.274954
-0.629855 -0.754361 0.184993
-0.45912 -0.88727 0.044277
-0.68673 -0.621903 0.376348
-0.467813 -0.742349 0.479656
-0.628093 -0.521219 0.577781
0.991802 0.099492 -0.0801848
0.987061 -0.149745 0.0573331
0.557595 0.77651 -0.293462
0.473447 0.880492 -0.024114
0.685723 0.726031 -0.0516114
0.278194 0.728924 0.625522
0.0605774 -0.176858 -0.98237
0.235781 -0.0288713 -0.971377
-0.36947 0.340963 0.864428
-0.441661 0.546226 0.711739
0.358865 -0.0918384 0.92886
0.521253 -0.234966 0.820419
0.641965 -0.0128542 0.766626
-0.264969 -0.154613 0.95178
-0.0736504 -0.0140969 0.997184
0.688052 0.352823 -0.634114
0.764045 0.582804 -0.276723
0.649972 0.576005 -0.495736
0.395352 -0.897648 -0.194742
0.505214 -0.759736 -0.40934
0.633566 -0.754164 -0.172714
-0.410682 -0.587934 0.696903
-0.223247 -0.767683 0.600686
0.516355 -0.808841 0.281344
0.278766 -0.902661 0.327862
0.273185 -0.959778 0.064778
-0.458121 -0.683837 -0.567884
-0.332255 -0.587683 -0.737723
-0.183966 -0.771702 -0.608797
-0.868052 -0.391265 -0.305609
-0.747728 -0.609219 -0.264114
-0.885753 -0.459748 -0.0638244
-0.842863 -0.0811443 0.531975
-0.0828634 0.990949 0.105609
-0.306721 0.934955 0.178273
-0.153992 0.910618 0.383486
-0.82667 0.338015 0.449847
-0.680755 0.531474 0.504092
-0.62405 0.36327 0.691807
-0.767696 0.154093 0.622011
0.40006 0.147603 -0.904525
0.40009 -0.497541 -0.769663
-0.102381 0.985859 -0.132668
-0.129648 0.919843 -0.370243
-0.920425 0.109976 0.37513
-0.827477 -0.529302 0.187408
-0.679916 -0.535738 -0.500698
0.939834 0.329173 0.0914152
0.825116 -0.112696 0.55361
0.82456 -0.375179 0.423487
0.936622 -0.183599 0.298379
-0.405462 0.833469 0.375408
0.0271973 0.844079 0.535529
0.979904 0.0903451 0.177839
0.694655 -0.29148 0.657643
0.653782 -0.524813 0.545107
-0.342021 -0.381187 0.858905
0.145538 -0.966756 -0.210241
-0.0752168 0.695568 -0.714512
0.576319 -0.564014 -0.591392
0.870266 0.343495 0.353056
0.021993 -0.999757 0.00167516
0.175854 -0.570524 -0.802233
0.0166159 -0.404137 -0.914547
-0.168408 -0.572166 0.802661
0.475803 -0.708352 0.521391
0.243546 -0.794627 0.556106
-0.546478 -0.756435 -0.359399
-0.935983 0.12952 -0.327354
-0.602095 -0.788989 -0.122384
-0.754238 -0.656552 -0.00807525
0.219511 0.68377 -0.695897
-0.657013 0.340206 -0.672751
-0.93122 -0.145356 -0.334217
-0.34278 0.643943 -0.683987
0.444115 0.725848 -0.525268
-0.64072 0.704831 0.304452
-0.075644 -0.615374 -0.784597
-0.550386 -0.443403 -0.707438
-0.435487 -0.263978 -0.86062
-0.245811 -0.422224 -0.872528
0.514278 0.324276 -0.793954
0.817719 -0.564273 -0.113719
-0.239294 0.752486 0.613598
0.202872 0.311201 0.928438
0.878388 -0.448641 0.164791
0.934222 -0.350017 -0.0686865
0.710857 -0.621832 0.328644
0.84847 0.526708 -0.0517442
0.027641 -0.711627 0.702014
0.155446 0.0801294 0.984589
0.428831 0.140447 0.8924
-0.0487364 0.31844 -0.94669
-0.298206 -0.861759 -0.41042
-0.0221329 -0.904527 -0.425841
-0.136515 -0.970771 -0.197401
0.343577 -0.704913 -0.620526
0.717419 -0.690927 0.0890501
0.086985 -0.770176 -0.631872
-0.319316 0.101061 0.942244
-0.555072 0.565699 -0.60982
-0.548436 -0.0511269 -0.834628
-0.511769 0.188198 -0.838257
-0.677798 -0.207623 -0.705324
-0.491092 0.688745 0.533347
-0.34536 0.936432 -0.0618262
0.509054 -0.859816 0.0397536
0.790838 0.156497 0.591679
0.914274 0.0756916 0.397963
0.716656 0.408758 0.565085
0.0165346 -0.873501 0.486541
0.165565 0.227614 -0.959573
0.0708567 0.520844 -0.850706
-0.195806 0.498668 -0.844388
0.29469 0.430776 -0.852989
0.251452 -0.866616 -0.430986
-0.793688 -0.305759 -0.5259
-0.375228 -0.909581 -0.178514
-0.434315 0.422497 -0.79553
0.467472 0.547123 -0.694354
